ply
format ascii 1.0
comment PCL generated
element vertex 1224
property float x
property float y
property float z
property uchar red
property uchar green
property uchar blue
element camera 0
property float view_px
property float view_py
property float view_pz
property float x_axisx
property float x_axisy
property float x_axisz
property float y_axisx
property float y_axisy
property float y_axisz
property float z_axisx
property float z_axisy
property float z_axisz
property float focal
property float scalex
property float scaley
property float centerx
property float centery
property int viewportx
property int viewporty
property float k1
property float k2
end_header
1.4164622 1.4166647 0.90393794 0 255 0
1.4164232 1.4202219 0.90745145 0 255 0
1.4163843 1.4237791 0.91096503 0 255 0
1.4163454 1.4273363 0.91447854 0 255 0
1.4163065 1.4308935 0.91799212 0 255 0
1.4162676 1.4344507 0.92150563 0 255 0
1.4162287 1.438008 0.92501915 0 255 0
1.422254 1.2692368 0.75441635 0 255 0
1.4222151 1.272794 0.75792986 0 255 0
1.4221762 1.2763512 0.76144344 0 255 0
1.4221373 1.2799084 0.76495695 0 255 0
1.4220984 1.2834656 0.76847053 0 255 0
1.4220595 1.2870228 0.77198404 0 255 0
1.4220206 1.29058 0.77549756 0 255 0
1.4219817 1.2941372 0.77901113 0 255 0
1.4219427 1.2976944 0.78252465 0 255 0
1.4219038 1.3012516 0.78603822 0 255 0
1.421865 1.3048089 0.78955173 0 255 0
1.421826 1.3083659 0.79306531 0 255 0
1.4217871 1.3119231 0.79657882 0 255 0
1.4217483 1.3154804 0.80009234 0 255 0
1.4217093 1.3190376 0.80360591 0 255 0
1.4216704 1.3225948 0.80711943 0 255 0
1.4216316 1.326152 0.810633 0 255 0
1.4215926 1.3297092 0.81414652 0 255 0
1.4215537 1.3332664 0.81766009 0 255 0
1.4215149 1.3368236 0.82117361 0 255 0
1.4214759 1.3403808 0.82468712 0 255 0
1.421437 1.343938 0.8282007 0 255 0
1.4213982 1.3474952 0.83171421 0 255 0
1.4213592 1.3510524 0.83522773 0 255 0
1.4213203 1.3546096 0.8387413 0 255 0
1.4212813 1.3581668 0.84225488 0 255 0
1.4212425 1.3617239 0.84576839 0 255 0
1.4212036 1.3652811 0.84928191 0 255 0
1.4211646 1.3688383 0.85279548 0 255 0
1.4211258 1.3723955 0.856309 0 255 0
1.4210869 1.3759527 0.85982251 0 255 0
1.4210479 1.3795099 0.86333609 0 255 0
1.4210091 1.3830671 0.8668496 0 255 0
1.4209702 1.3866243 0.87036318 0 255 0
1.4209312 1.3901815 0.87387669 0 255 0
1.4208924 1.3937387 0.87739027 0 255 0
1.4208535 1.397296 0.88090378 0 255 0
1.4208145 1.4008532 0.8844173 0 255 0
1.4207757 1.4044104 0.88793087 0 255 0
1.4207368 1.4079676 0.89144439 0 255 0
1.4206978 1.4115248 0.89495796 0 255 0
1.4206589 1.415082 0.89847147 0 255 0
1.42062 1.4186392 0.90198505 0 255 0
1.4205811 1.4221964 0.90549856 0 255 0
1.4205422 1.4257536 0.90901208 0 255 0
1.4205033 1.4293108 0.91252565 0 255 0
1.4204644 1.432868 0.91603917 0 255 0
1.4204255 1.4364251 0.91955274 0 255 0
1.4203866 1.4399823 0.92306626 0 255 0
1.4264119 1.2712111 0.75246346 0 255 0
1.426373 1.2747684 0.75597697 0 255 0
1.426334 1.2783256 0.75949049 0 255 0
1.4262952 1.2818828 0.76300406 0 255 0
1.4262563 1.28544 0.76651758 0 255 0
1.4262173 1.2889972 0.77003115 0 255 0
1.4261785 1.2925544 0.77354467 0 255 0
1.4261396 1.2961116 0.77705824 0 255 0
1.4261006 1.2996688 0.78057176 0 255 0
1.4260617 1.303226 0.78408533 0 255 0
1.4260229 1.3067832 0.78759885 0 255 0
1.4259839 1.3103404 0.79111242 0 255 0
1.425945 1.3138976 0.79462594 0 255 0
1.4259062 1.3174548 0.79813945 0 255 0
1.4258672 1.321012 0.80165303 0 255 0
1.4258283 1.3245692 0.80516654 0 255 0
1.4257895 1.3281264 0.80868006 0 255 0
1.4257505 1.3316836 0.81219363 0 255 0
1.4257116 1.3352408 0.81570715 0 255 0
1.4256727 1.3387979 0.81922072 0 255 0
1.4256338 1.3423551 0.82273424 0 255 0
1.4255949 1.3459123 0.82624781 0 255 0
1.4255559 1.3494695 0.82976133 0 255 0
1.4255171 1.3530267 0.83327484 0 255 0
1.4254782 1.356584 0.83678842 0 255 0
1.4254392 1.3601412 0.84030193 0 255 0
1.4254004 1.3636984 0.84381545 0 255 0
1.4253615 1.3672556 0.84732902 0 255 0
1.4253225 1.3708128 0.8508426 0 255 0
1.4252837 1.37437 0.85435611 0 255 0
1.4252448 1.3779272 0.85786963 0 255 0
1.4252058 1.3814844 0.8613832 0 255 0
1.425167 1.3850416 0.86489671 0 255 0
1.425128 1.3885988 0.86841023 0 255 0
1.4250891 1.392156 0.8719238 0 255 0
1.4250503 1.3957131 0.87543732 0 255 0
1.4250113 1.3992703 0.87895089 0 255 0
1.4249724 1.4028275 0.88246441 0 255 0
1.4249336 1.4063847 0.88597798 0 255 0
1.4248946 1.4099419 0.8894915 0 255 0
1.4248557 1.4134991 0.89300501 0 255 0
1.4248168 1.4170563 0.89651859 0 255 0
1.4247779 1.4206135 0.9000321 0 255 0
1.424739 1.4241707 0.90354568 0 255 0
1.4247001 1.4277279 0.90705919 0 255 0
1.4246612 1.4312851 0.91057277 0 255 0
1.4246223 1.4348423 0.91408628 0 255 0
1.4245834 1.4383996 0.9175998 0 255 0
1.4245445 1.4419568 0.92111337 0 255 0
1.4305698 1.2731856 0.75051051 0 255 0
1.4305309 1.2767428 0.75402409 0 255 0
1.4304919 1.2803 0.7575376 0 255 0
1.4304531 1.2838572 0.76105118 0 255 0
1.4304142 1.2874144 0.76456469 0 255 0
1.4303752 1.2909716 0.76807821 0 255 0
1.4303364 1.2945288 0.77159178 0 255 0
1.4302975 1.298086 0.77510536 0 255 0
1.4302585 1.3016431 0.77861887 0 255 0
1.4302197 1.3052003 0.78213239 0 255 0
1.4301808 1.3087575 0.78564596 0 255 0
1.4301418 1.3123147 0.78915948 0 255 0
1.4301029 1.315872 0.79267305 0 255 0
1.430064 1.3194292 0.79618657 0 255 0
1.4300251 1.3229864 0.79970014 0 255 0
1.4299862 1.3265436 0.80321366 0 255 0
1.4299473 1.3301008 0.80672717 0 255 0
1.4299084 1.333658 0.81024075 0 255 0
1.4298695 1.3372152 0.81375426 0 255 0
1.4298306 1.3407724 0.81726778 0 255 0
1.4297917 1.3443296 0.82078135 0 255 0
1.4297528 1.3478868 0.82429487 0 255 0
1.4297138 1.351444 0.82780844 0 255 0
1.429675 1.3550012 0.83132195 0 255 0
1.4296361 1.3585584 0.83483553 0 255 0
1.4295971 1.3621156 0.83834904 0 255 0
1.4295583 1.3656728 0.84186256 0 255 0
1.4295194 1.36923 0.84537613 0 255 0
1.4294804 1.3727871 0.84888965 0 255 0
1.4294416 1.3763443 0.85240316 0 255 0
1.4294026 1.3799015 0.85591674 0 255 0
1.4293637 1.3834587 0.85943031 0 255 0
1.4293249 1.3870159 0.86294383 0 255 0
1.4292859 1.3905731 0.86645734 0 255 0
1.429247 1.3941303 0.86997092 0 255 0
1.4292082 1.3976876 0.87348443 0 255 0
1.4291692 1.4012448 0.87699795 0 255 0
1.4291303 1.404802 0.88051152 0 255 0
1.4290915 1.4083592 0.88402504 0 255 0
1.4290525 1.4119164 0.88753861 0 255 0
1.4290136 1.4154736 0.89105213 0 255 0
1.4289747 1.4190308 0.8945657 0 255 0
1.4289358 1.422588 0.89807922 0 255 0
1.4288969 1.4261452 0.90159273 0 255 0
1.428858 1.4297024 0.90510631 0 255 0
1.4288191 1.4332596 0.90861982 0 255 0
1.4287802 1.4368167 0.9121334 0 255 0
1.4287412 1.4403739 0.91564691 0 255 0
1.4287024 1.4439311 0.91916049 0 255 0
1.4347277 1.27516 0.74855763 0 255 0
1.4346888 1.2787172 0.75207114 0 255 0
1.4346498 1.2822744 0.75558472 0 255 0
1.434611 1.2858316 0.75909823 0 255 0
1.4345721 1.2893888 0.76261181 0 255 0
1.4345331 1.292946 0.76612532 0 255 0
1.4344943 1.2965032 0.7696389 0 255 0
1.4344553 1.3000604 0.77315241 0 255 0
1.4344164 1.3036176 0.77666599 0 255 0
1.4343776 1.3071748 0.7801795 0 255 0
1.4343386 1.310732 0.78369308 0 255 0
1.4342997 1.3142892 0.78720659 0 255 0
1.4342608 1.3178464 0.79072011 0 255 0
1.4342219 1.3214036 0.79423368 0 255 0
1.434183 1.3249608 0.79774719 0 255 0
1.4341441 1.328518 0.80126077 0 255 0
1.4341052 1.3320752 0.80477428 0 255 0
1.4340663 1.3356323 0.8082878 0 255 0
1.4340274 1.3391895 0.81180137 0 255 0
1.4339885 1.3427467 0.81531489 0 255 0
1.4339496 1.3463039 0.81882846 0 255 0
1.4339107 1.3498611 0.82234198 0 255 0
1.4338717 1.3534184 0.82585549 0 255 0
1.4338329 1.3569756 0.82936907 0 255 0
1.4337939 1.3605328 0.83288258 0 255 0
1.433755 1.36409 0.83639616 0 255 0
1.4337162 1.3676472 0.83990967 0 255 0
1.4336772 1.3712044 0.84342325 0 255 0
1.4336383 1.3747616 0.84693676 0 255 0
1.4335995 1.3783188 0.85045028 0 255 0
1.4335605 1.381876 0.85396385 0 255 0
1.4335216 1.3854332 0.85747737 0 255 0
1.4334828 1.3889904 0.86099088 0 255 0
1.4334438 1.3925476 0.86450446 0 255 0
1.4334049 1.3961048 0.86801797 0 255 0
1.4333661 1.399662 0.87153155 0 255 0
1.4333271 1.4032191 0.87504506 0 255 0
1.4332882 1.4067763 0.87855864 0 255 0
1.4332492 1.4103335 0.88207215 0 255 0
1.4332104 1.4138907 0.88558567 0 255 0
1.4331715 1.4174479 0.88909924 0 255 0
1.4331325 1.4210051 0.89261276 0 255 0
1.4330937 1.4245623 0.89612633 0 255 0
1.4330548 1.4281195 0.89963984 0 255 0
1.4330158 1.4316767 0.90315342 0 255 0
1.432977 1.435234 0.90666693 0 255 0
1.4329381 1.4387912 0.91018045 0 255 0
1.4328991 1.4423484 0.91369402 0 255 0
1.4328603 1.4459056 0.9172076 0 255 0
1.4388856 1.2771344 0.74660474 0 255 0
1.4388467 1.2806916 0.75011826 0 255 0
1.4388077 1.2842488 0.75363183 0 255 0
1.4387689 1.287806 0.75714535 0 255 0
1.4387299 1.2913632 0.76065892 0 255 0
1.438691 1.2949204 0.76417243 0 255 0
1.4386522 1.2984776 0.76768601 0 255 0
1.4386132 1.3020349 0.77119952 0 255 0
1.4385743 1.3055921 0.77471304 0 255 0
1.4385355 1.3091493 0.77822661 0 255 0
1.4384965 1.3127065 0.78174013 0 255 0
1.4384576 1.3162636 0.7852537 0 255 0
1.4384187 1.3198208 0.78876722 0 255 0
1.4383798 1.323378 0.79228079 0 255 0
1.4383409 1.3269352 0.79579431 0 255 0
1.438302 1.3304924 0.79930782 0 255 0
1.4382631 1.3340496 0.8028214 0 255 0
1.4382242 1.3376068 0.80633491 0 255 0
1.4381853 1.341164 0.80984843 0 255 0
1.4381464 1.3447212 0.813362 0 255 0
1.4381075 1.3482784 0.81687552 0 255 0
1.4380685 1.3518356 0.82038909 0 255 0
1.4380296 1.3553928 0.82390261 0 255 0
1.4379908 1.35895 0.82741618 0 255 0
1.4379518 1.3625072 0.8309297 0 255 0
1.4379129 1.3660644 0.83444321 0 255 0
1.4378741 1.3696215 0.83795679 0 255 0
1.4378351 1.3731787 0.8414703 0 255 0
1.4377962 1.3767359 0.84498388 0 255 0
1.4377574 1.3802931 0.84849739 0 255 0
1.4377184 1.3838503 0.85201097 0 255 0
1.4376795 1.3874075 0.85552448 0 255 0
1.4376407 1.3909647 0.859038 0 255 0
1.4376017 1.394522 0.86255157 0 255 0
1.4375628 1.3980792 0.86606508 0 255 0
1.4375238 1.4016364 0.8695786 0 255 0
1.437485 1.4051936 0.87309217 0 255 0
1.4374461 1.4087508 0.87660569 0 255 0
1.4374071 1.412308 0.88011926 0 255 0
1.4373683 1.4158652 0.88363278 0 255 0
1.4373294 1.4194224 0.88714635 0 255 0
1.4372904 1.4229796 0.89065987 0 255 0
1.4372516 1.4265368 0.89417338 0 255 0
1.4372127 1.430094 0.89768696 0 255 0
1.4371737 1.4336512 0.90120053 0 255 0
1.4371349 1.4372084 0.90471405 0 255 0
1.437096 1.4407656 0.90822756 0 255 0
1.437057 1.4443227 0.91174114 0 255 0
1.4370182 1.4478799 0.91525465 0 255 0
1.4430435 1.2791088 0.74465185 0 255 0
1.4430045 1.282666 0.74816537 0 255 0
1.4429656 1.2862232 0.75167888 0 255 0
1.4429268 1.2897804 0.75519246 0 255 0
1.4428878 1.2933376 0.75870597 0 255 0
1.4428489 1.2968948 0.76221955 0 255 0
1.4428101 1.300452 0.76573306 0 255 0
1.4427711 1.3040092 0.76924664 0 255 0
1.4427322 1.3075664 0.77276015 0 255 0
1.4426934 1.3111236 0.77627373 0 255 0
1.4426544 1.3146808 0.77978724 0 255 0
1.4426155 1.318238 0.78330076 0 255 0
1.4425766 1.3217952 0.78681433 0 255 0
1.4425377 1.3253524 0.79032785 0 255 0
1.4424988 1.3289096 0.79384142 0 255 0
1.4424599 1.3324668 0.79735494 0 255 0
1.442421 1.336024 0.80086851 0 255 0
1.4423821 1.3395813 0.80438203 0 255 0
1.4423431 1.3431385 0.80789554 0 255 0
1.4423043 1.3466955 0.81140912 0 255 0
1.4422654 1.3502527 0.81492263 0 255 0
1.4422264 1.35381 0.81843615 0 255 0
1.4421875 1.3573672 0.82194972 0 255 0
1.4421487 1.3609244 0.82546324 0 255 0
1.4421097 1.3644816 0.82897681 0 255 0
1.4420708 1.3680388 0.83249032 0 255 0
1.442032 1.371596 0.8360039 0 255 0
1.441993 1.3751532 0.83951741 0 255 0
1.4419541 1.3787104 0.84303093 0 255 0
1.4419153 1.3822676 0.8465445 0 255 0
1.4418763 1.3858248 0.85005802 0 255 0
1.4418374 1.389382 0.85357159 0 255 0
1.4417984 1.3929392 0.85708511 0 255 0
1.4417596 1.3964964 0.86059868 0 255 0
1.4417207 1.4000536 0.8641122 0 255 0
1.4416817 1.4036107 0.86762571 0 255 0
1.4416429 1.4071679 0.87113929 0 255 0
1.441604 1.4107251 0.8746528 0 255 0
1.441565 1.4142823 0.87816632 0 255 0
1.4415262 1.4178395 0.88167989 0 255 0
1.4414873 1.4213967 0.88519347 0 255 0
1.4414483 1.4249539 0.88870698 0 255 0
1.4414095 1.4285111 0.8922205 0 255 0
1.4413706 1.4320683 0.89573407 0 255 0
1.4413316 1.4356256 0.89924759 0 255 0
1.4412928 1.4391828 0.9027611 0 255 0
1.4412539 1.44274 0.90627468 0 255 0
1.4412149 1.4462972 0.90978825 0 255 0
1.4411761 1.4498544 0.91330177 0 255 0
1.4472014 1.2810832 0.74269891 0 255 0
1.4471624 1.2846404 0.74621248 0 255 0
1.4471235 1.2881976 0.749726 0 255 0
1.4470847 1.2917548 0.75323957 0 255 0
1.4470457 1.295312 0.75675309 0 255 0
1.4470068 1.2988693 0.76026666 0 255 0
1.446968 1.3024265 0.76378018 0 255 0
1.446929 1.3059837 0.76729369 0 255 0
1.4468901 1.3095407 0.77080727 0 255 0
1.4468513 1.313098 0.77432078 0 255 0
1.4468123 1.3166552 0.77783436 0 255 0
1.4467734 1.3202124 0.78134787 0 255 0
1.4467345 1.3237696 0.78486145 0 255 0
1.4466956 1.3273268 0.78837496 0 255 0
1.4466567 1.330884 0.79188848 0 255 0
1.4466177 1.3344412 0.79540205 0 255 0
1.4465789 1.3379984 0.79891557 0 255 0
1.44654 1.3415556 0.80242914 0 255 0
1.446501 1.3451128 0.80594265 0 255 0
1.4464622 1.34867 0.80945623 0 255 0
1.4464233 1.3522272 0.81296974 0 255 0
1.4463843 1.3557844 0.81648326 0 255 0
1.4463454 1.3593416 0.81999683 0 255 0
1.4463066 1.3628988 0.82351035 0 255 0
1.4462676 1.366456 0.82702386 0 255 0
1.4462287 1.3700132 0.83053744 0 255 0
1.4461899 1.3735704 0.83405095 0 255 0
1.4461509 1.3771275 0.83756453 0 255 0
1.446112 1.3806847 0.84107804 0 255 0
1.4460731 1.3842419 0.84459162 0 255 0
1.4460342 1.3877991 0.84810513 0 255 0
1.4459953 1.3913563 0.85161865 0 255 0
1.4459563 1.3949136 0.85513222 0 255 0
1.4459175 1.3984708 0.85864574 0 255 0
1.4458786 1.402028 0.86215925 0 255 0
1.4458396 1.4055852 0.86567283 0 255 0
1.4458008 1.4091424 0.8691864 0 255 0
1.4457619 1.4126996 0.87269992 0 255 0
1.4457229 1.4162568 0.87621343 0 255 0
1.4456841 1.419814 0.87972701 0 255 0
1.4456452 1.4233712 0.88324052 0 255 0
1.4456062 1.4269284 0.88675404 0 255 0
1.4455674 1.4304856 0.89026761 0 255 0
1.4455285 1.4340428 0.89378119 0 255 0
1.4454895 1.4376 0.8972947 0 255 0
1.4454507 1.4411572 0.90080822 0 255 0
1.4454117 1.4447143 0.90432179 0 255 0
1.4453728 1.4482715 0.9078353 0 255 0
1.445334 1.4518287 0.91134888 0 255 0
1.4513593 1.2830576 0.74074602 0 255 0
1.4513203 1.2866148 0.7442596 0 255 0
1.4512814 1.290172 0.74777311 0 255 0
1.4512426 1.2937292 0.75128663 0 255 0
1.4512036 1.2972864 0.7548002 0 255 0
1.4511647 1.3008436 0.75831372 0 255 0
1.4511259 1.3044008 0.76182729 0 255 0
1.4510869 1.307958 0.76534081 0 255 0
1.451048 1.3115152 0.76885438 0 255 0
1.451009 1.3150724 0.77236789 0 255 0
1.4509702 1.3186296 0.77588141 0 255 0
1.4509313 1.3221868 0.77939498 0 255 0
1.4508923 1.325744 0.7829085 0 255 0
1.4508535 1.3293012 0.78642207 0 255 0
1.4508146 1.3328584 0.78993559 0 255 0
1.4507756 1.3364156 0.79344916 0 255 0
1.4507368 1.3399729 0.79696268 0 255 0
1.4506979 1.3435299 0.80047619 0 255 0
1.4506589 1.3470871 0.80398977 0 255 0
1.4506201 1.3506444 0.80750328 0 255 0
1.4505812 1.3542016 0.81101686 0 255 0
1.4505422 1.3577588 0.81453037 0 255 0
1.4505033 1.361316 0.81804389 0 255 0
1.4504644 1.3648732 0.82155746 0 255 0
1.4504255 1.3684304 0.82507098 0 255 0
1.4503866 1.3719876 0.82858455 0 255 0
1.4503477 1.3755448 0.83209807 0 255 0
1.4503088 1.379102 0.83561158 0 255 0
1.4502699 1.3826592 0.83912516 0 255 0
1.450231 1.3862164 0.84263867 0 255 0
1.4501921 1.3897736 0.84615225 0 255 0
1.4501532 1.3933308 0.84966576 0 255 0
1.4501143 1.396888 0.85317934 0 255 0
1.4500754 1.4004452 0.85669285 0 255 0
1.4500365 1.4040024 0.86020637 0 255 0
1.4499975 1.4075596 0.86371994 0 255 0
1.4499587 1.4111167 0.86723346 0 255 0
1.4499198 1.4146739 0.87074697 0 255 0
1.4498808 1.4182311 0.87426054 0 255 0
1.449842 1.4217883 0.87777412 0 255 0
1.449803 1.4253455 0.88128763 0 255 0
1.4497641 1.4289027 0.88480115 0 255 0
1.4497253 1.43246 0.88831472 0 255 0
1.4496863 1.4360172 0.89182824 0 255 0
1.4496474 1.4395744 0.89534181 0 255 0
1.4496086 1.4431316 0.89885533 0 255 0
1.4495696 1.4466888 0.9023689 0 255 0
1.4495307 1.450246 0.90588242 0 255 0
1.4494919 1.4538032 0.90939593 0 255 0
1.4555172 1.285032 0.73879313 0 255 0
1.4554782 1.2885892 0.74230665 0 255 0
1.4554393 1.2921464 0.74582022 0 255 0
1.4554005 1.2957036 0.74933374 0 255 0
1.4553615 1.2992609 0.75284731 0 255 0
1.4553226 1.3028181 0.75636083 0 255 0
1.4552836 1.3063753 0.75987434 0 255 0
1.4552448 1.3099325 0.76338792 0 255 0
1.4552059 1.3134897 0.76690143 0 255 0
1.4551669 1.3170469 0.77041501 0 255 0
1.4551281 1.3206041 0.77392852 0 255 0
1.4550892 1.3241613 0.7774421 0 255 0
1.4550502 1.3277185 0.78095561 0 255 0
1.4550114 1.3312756 0.78446913 0 255 0
1.4549725 1.3348328 0.7879827 0 255 0
1.4549335 1.33839 0.79149622 0 255 0
1.4548947 1.3419472 0.79500979 0 255 0
1.4548558 1.3455044 0.79852331 0 255 0
1.4548168 1.3490616 0.80203688 0 255 0
1.454778 1.3526188 0.8055504 0 255 0
1.454739 1.356176 0.80906391 0 255 0
1.4547001 1.3597332 0.81257749 0 255 0
1.4546613 1.3632904 0.816091 0 255 0
1.4546223 1.3668476 0.81960452 0 255 0
1.4545834 1.3704048 0.82311809 0 255 0
1.4545445 1.373962 0.82663167 0 255 0
1.4545056 1.3775192 0.83014518 0 255 0
1.4544667 1.3810765 0.8336587 0 255 0
1.4544278 1.3846337 0.83717227 0 255 0
1.4543889 1.3881907 0.84068578 0 255 0
1.45435 1.391748 0.8441993 0 255 0
1.4543111 1.3953052 0.84771287 0 255 0
1.4542722 1.3988624 0.85122639 0 255 0
1.4542333 1.4024196 0.85473996 0 255 0
1.4541944 1.4059768 0.85825348 0 255 0
1.4541554 1.409534 0.86176705 0 255 0
1.4541166 1.4130912 0.86528057 0 255 0
1.4540776 1.4166484 0.86879408 0 255 0
1.4540387 1.4202056 0.87230766 0 255 0
1.4539999 1.4237628 0.87582117 0 255 0
1.4539609 1.42732 0.87933475 0 255 0
1.453922 1.4308772 0.88284826 0 255 0
1.4538832 1.4344344 0.88636184 0 255 0
1.4538442 1.4379916 0.88987535 0 255 0
1.4538053 1.4415488 0.89338887 0 255 0
1.4537665 1.445106 0.89690244 0 255 0
1.4537275 1.4486632 0.90041596 0 255 0
1.4536886 1.4522204 0.90392953 0 255 0
1.4536498 1.4557776 0.90744305 0 255 0
1.4596751 1.2870064 0.73684025 0 255 0
1.4596361 1.2905636 0.74035376 0 255 0
1.4595972 1.2941208 0.74386728 0 255 0
1.4595582 1.297678 0.74738085 0 255 0
1.4595194 1.3012352 0.75089437 0 255 0
1.4594805 1.3047924 0.75440794 0 255 0
1.4594415 1.3083496 0.75792146 0 255 0
1.4594027 1.3119068 0.76143503 0 255 0
1.4593638 1.315464 0.76494855 0 255 0
1.4593248 1.3190212 0.76846212 0 255 0
1.459286 1.3225784 0.77197564 0 255 0
1.4592471 1.3261356 0.77548921 0 255 0
1.4592081 1.3296928 0.77900273 0 255 0
1.4591693 1.33325 0.78251624 0 255 0
1.4591304 1.3368073 0.78602982 0 255 0
1.4590914 1.3403645 0.78954333 0 255 0
1.4590526 1.3439217 0.79305685 0 255 0
1.4590136 1.3474789 0.79657042 0 255 0
1.4589747 1.3510361 0.80008394 0 255 0
1.4589359 1.3545933 0.80359751 0 255 0
1.4588969 1.3581505 0.80711102 0 255 0
1.458858 1.3617076 0.8106246 0 255 0
1.4588192 1.3652648 0.81413811 0 255 0
1.4587802 1.368822 0.81765163 0 255 0
1.4587413 1.3723792 0.8211652 0 255 0
1.4587024 1.3759364 0.82467872 0 255 0
1.4586635 1.3794936 0.82819223 0 255 0
1.4586246 1.3830508 0.83170581 0 255 0
1.4585857 1.386608 0.83521938 0 255 0
1.4585468 1.3901652 0.8387329 0 255 0
1.4585079 1.3937224 0.84224641 0 255 0
1.458469 1.3972796 0.84575999 0 255 0
1.4584301 1.4008368 0.8492735 0 255 0
1.4583912 1.404394 0.85278702 0 255 0
1.4583522 1.4079512 0.85630059 0 255 0
1.4583133 1.4115084 0.85981411 0 255 0
1.4582745 1.4150656 0.86332768 0 255 0
1.4582355 1.4186227 0.8668412 0 255 0
1.4581966 1.4221799 0.87035477 0 255 0
1.4581578 1.4257371 0.87386829 0 255 0
1.4581188 1.4292943 0.8773818 0 255 0
1.4580799 1.4328516 0.88089538 0 255 0
1.4580411 1.4364088 0.88440889 0 255 0
1.4580021 1.439966 0.88792247 0 255 0
1.4579632 1.4435232 0.89143598 0 255 0
1.4579244 1.4470804 0.89494956 0 255 0
1.4578854 1.4506376 0.89846307 0 255 0
1.4578465 1.4541948 0.90197659 0 255 0
1.4578077 1.457752 0.90549016 0 255 0
1.4638329 1.2889808 0.7348873 0 255 0
1.463794 1.292538 0.73840088 0 255 0
1.4637551 1.2960953 0.74191439 0 255 0
1.4637161 1.2996525 0.74542797 0 255 0
1.4636773 1.3032097 0.74894148 0 255 0
1.4636384 1.3067669 0.75245506 0 255 0
1.4635994 1.3103241 0.75596857 0 255 0
1.4635606 1.3138813 0.75948215 0 255 0
1.4635217 1.3174385 0.76299566 0 255 0
1.4634827 1.3209957 0.76650918 0 255 0
1.4634439 1.3245529 0.77002275 0 255 0
1.463405 1.32811 0.77353626 0 255 0
1.463366 1.3316672 0.77704984 0 255 0
1.4633272 1.3352244 0.78056335 0 255 0
1.4632882 1.3387816 0.78407693 0 255 0
1.4632493 1.3423388 0.78759044 0 255 0
1.4632105 1.345896 0.79110396 0 255 0
1.4631715 1.3494532 0.79461753 0 255 0
1.4631326 1.3530104 0.79813105 0 255 0
1.4630938 1.3565676 0.80164456 0 255 0
1.4630548 1.3601248 0.80515814 0 255 0
1.4630159 1.363682 0.80867165 0 255 0
1.4629771 1.3672392 0.81218523 0 255 0
1.4629381 1.3707964 0.81569874 0 255 0
1.4628992 1.3743536 0.81921232 0 255 0
1.4628603 1.3779109 0.82272583 0 255 0
1.4628214 1.3814681 0.82623935 0 255 0
1.4627825 1.3850253 0.82975292 0 255 0
1.4627436 1.3885825 0.83326644 0 255 0
1.4627047 1.3921397 0.83677995 0 255 0
1.4626658 1.3956968 0.84029353 0 255 0
1.4626268 1.399254 0.8438071 0 255 0
1.462588 1.4028112 0.84732062 0 255 0
1.4625491 1.4063684 0.85083413 0 255 0
1.4625101 1.4099256 0.85434771 0 255 0
1.4624712 1.4134828 0.85786122 0 255 0
1.4624324 1.41704 0.86137474 0 255 0
1.4623934 1.4205972 0.86488831 0 255 0
1.4623545 1.4241544 0.86840183 0 255 0
1.4623157 1.4277116 0.8719154 0 255 0
1.4622767 1.4312688 0.87542892 0 255 0
1.4622378 1.434826 0.87894249 0 255 0
1.462199 1.4383832 0.882456 0 255 0
1.46216 1.4419404 0.88596952 0 255 0
1.4621211 1.4454976 0.88948309 0 255 0
1.4620823 1.4490548 0.89299661 0 255 0
1.4620433 1.452612 0.89651018 0 255 0
1.4620044 1.4561692 0.9000237 0 255 0
1.4619654 1.4597265 0.90353727 0 255 0
1.4679908 1.2909553 0.73293442 0 255 0
1.4679519 1.2945124 0.73644793 0 255 0
1.467913 1.2980696 0.7399615 0 255 0
1.4678741 1.3016268 0.74347502 0 255 0
1.4678352 1.305184 0.74698859 0 255 0
1.4677963 1.3087412 0.75050211 0 255 0
1.4677573 1.3122984 0.75401568 0 255 0
1.4677185 1.3158556 0.7575292 0 255 0
1.4676796 1.3194128 0.76104277 0 255 0
1.4676406 1.32297 0.76455629 0 255 0
1.4676018 1.3265272 0.76806986 0 255 0
1.4675628 1.3300844 0.77158338 0 255 0
1.4675239 1.3336416 0.77509689 0 255 0
1.4674851 1.3371989 0.77861047 0 255 0
1.4674461 1.3407561 0.78212398 0 255 0
1.4674072 1.3443133 0.78563756 0 255 0
1.4673684 1.3478705 0.78915107 0 255 0
1.4673294 1.3514277 0.79266459 0 255 0
1.4672905 1.3549849 0.79617816 0 255 0
1.4672517 1.358542 0.79969168 0 255 0
1.4672127 1.3620992 0.80320525 0 255 0
1.4671738 1.3656564 0.80671877 0 255 0
1.467135 1.3692136 0.81023228 0 255 0
1.467096 1.3727708 0.81374586 0 255 0
1.4670571 1.376328 0.81725937 0 255 0
1.4670182 1.3798852 0.82077295 0 255 0
1.4669793 1.3834424 0.82428646 0 255 0
1.4669404 1.3869996 0.82780004 0 255 0
1.4669014 1.3905568 0.83131355 0 255 0
1.4668626 1.394114 0.83482707 0 255 0
1.4668237 1.3976712 0.83834064 0 255 0
1.4667847 1.4012284 0.84185416 0 255 0
1.4667459 1.4047856 0.84536767 0 255 0
1.466707 1.4083428 0.84888124 0 255 0
1.466668 1.4119 0.85239476 0 255 0
1.4666291 1.4154572 0.85590833 0 255 0
1.4665903 1.4190145 0.85942185 0 255 0
1.4665513 1.4225717 0.86293542 0 255 0
1.4665124 1.4261287 0.86644894 0 255 0
1.4664736 1.429686 0.86996245 0 255 0
1.4664346 1.4332432 0.87347603 0 255 0
1.4663957 1.4368004 0.87698954 0 255 0
1.4663569 1.4403576 0.88050312 0 255 0
1.4663179 1.4439148 0.88401663 0 255 0
1.466279 1.447472 0.88753021 0 255 0
1.46624 1.4510292 0.89104372 0 255 0
1.4662012 1.4545864 0.89455724 0 255 0
1.4661623 1.4581436 0.89807081 0 255 0
1.4661233 1.4617008 0.90158439 0 255 0
1.4721487 1.2929296 0.73098153 0 255 0
1.4721098 1.2964869 0.73449504 0 255 0
1.4720709 1.3000441 0.73800862 0 255 0
1.472032 1.3036013 0.74152213 0 255 0
1.4719931 1.3071585 0.74503571 0 255 0
1.4719542 1.3107157 0.74854922 0 255 0
1.4719152 1.3142729 0.7520628 0 255 0
1.4718764 1.3178301 0.75557631 0 255 0
1.4718374 1.3213873 0.75908983 0 255 0
1.4717985 1.3249445 0.7626034 0 255 0
1.4717597 1.3285017 0.76611692 0 255 0
1.4717207 1.3320589 0.76963049 0 255 0
1.4716818 1.3356161 0.77314401 0 255 0
1.471643 1.3391732 0.77665758 0 255 0
1.471604 1.3427304 0.7801711 0 255 0
1.4715651 1.3462876 0.78368461 0 255 0
1.4715263 1.3498448 0.78719819 0 255 0
1.4714873 1.353402 0.7907117 0 255 0
1.4714484 1.3569592 0.79422522 0 255 0
1.4714096 1.3605164 0.79773879 0 255 0
1.4713706 1.3640736 0.80125231 0 255 0
1.4713317 1.3676308 0.80476588 0 255 0
1.4712929 1.371188 0.8082794 0 255 0
1.4712539 1.3747452 0.81179297 0 255 0
1.471215 1.3783025 0.81530648 0 255 0
1.471176 1.3818597 0.81882 0 255 0
1.4711372 1.3854169 0.82233357 0 255 0
1.4710983 1.3889741 0.82584709 0 255 0
1.4710593 1.3925313 0.82936066 0 255 0
1.4710205 1.3960884 0.83287418 0 255 0
1.4709816 1.3996456 0.83638775 0 255 0
1.4709426 1.4032028 0.83990127 0 255 0
1.4709038 1.40676 0.84341478 0 255 0
1.4708649 1.4103172 0.84692836 0 255 0
1.4708259 1.4138744 0.85044187 0 255 0
1.470787 1.4174316 0.85395539 0 255 0
1.4707482 1.4209888 0.85746896 0 255 0
1.4707092 1.424546 0.86098248 0 255 0
1.4706703 1.4281032 0.86449605 0 255 0
1.4706315 1.4316604 0.86800957 0 255 0
1.4705925 1.4352176 0.87152314 0 255 0
1.4705536 1.4387748 0.87503666 0 255 0
1.4705147 1.442332 0.87855017 0 255 0
1.4704758 1.4458892 0.88206375 0 255 0
1.4704369 1.4494464 0.88557732 0 255 0
1.4703979 1.4530036 0.88909084 0 255 0
1.4703591 1.4565609 0.89260435 0 255 0
1.4703202 1.4601181 0.89611793 0 255 0
1.4702812 1.4636753 0.89963144 0 255 0
1.4763066 1.294904 0.72902864 0 255 0
1.4762677 1.2984612 0.73254216 0 255 0
1.4762288 1.3020184 0.73605567 0 255 0
1.4761899 1.3055756 0.73956925 0 255 0
1.476151 1.3091328 0.74308276 0 255 0
1.4761121 1.31269 0.74659634 0 255 0
1.4760731 1.3162472 0.75010985 0 255 0
1.4760343 1.3198044 0.75362343 0 255 0
1.4759953 1.3233616 0.75713694 0 255 0
1.4759564 1.3269188 0.76065052 0 255 0
1.4759176 1.330476 0.76416403 0 255 0
1.4758786 1.3340333 0.76767755 0 255 0
1.4758397 1.3375905 0.77119112 0 255 0
1.4758009 1.3411477 0.77470464 0 255 0
1.4757619 1.3447049 0.77821821 0 255 0
1.475723 1.3482621 0.78173172 0 255 0
1.4756842 1.3518193 0.7852453 0 255 0
1.4756452 1.3553765 0.78875881 0 255 0
1.4756063 1.3589337 0.79227233 0 255 0
1.4755675 1.3624909 0.7957859 0 255 0
1.4755285 1.3660481 0.79929942 0 255 0
1.4754896 1.3696053 0.80281293 0 255 0
1.4754506 1.3731624 0.80632651 0 255 0
1.4754118 1.3767196 0.80984002 0 255 0
1.4753729 1.3802768 0.8133536 0 255 0
1.4753339 1.383834 0.81686711 0 255 0
1.4752951 1.3873912 0.82038069 0 255 0
1.4752562 1.3909484 0.8238942 0 255 0
1.4752172 1.3945056 0.82740772 0 255 0
1.4751784 1.3980628 0.83092129 0 255 0
1.4751395 1.40162 0.83443481 0 255 0
1.4751005 1.4051772 0.83794838 0 255 0
1.4750617 1.4087344 0.8414619 0 255 0
1.4750228 1.4122916 0.84497547 0 255 0
1.4749838 1.4158489 0.84848899 0 255 0
1.4749449 1.4194061 0.8520025 0 255 0
1.4749061 1.4229633 0.85551608 0 255 0
1.4748671 1.4265205 0.85902959 0 255 0
1.4748282 1.4300776 0.86254311 0 255 0
1.4747893 1.4336348 0.86605668 0 255 0
1.4747504 1.437192 0.86957026 0 255 0
1.4747115 1.4407492 0.87308377 0 255 0
1.4746726 1.4443064 0.87659729 0 255 0
1.4746337 1.4478636 0.88011086 0 255 0
1.4745948 1.4514208 0.88362437 0 255 0
1.4745559 1.454978 0.88713789 0 255 0
1.474517 1.4585352 0.89065146 0 255 0
1.4744781 1.4620924 0.89416504 0 255 0
1.4744391 1.4656496 0.89767855 0 255 0
1.4804645 1.2968785 0.7270757 0 255 0
1.4804256 1.3004357 0.73058927 0 255 0
1.4803866 1.3039929 0.73410279 0 255 0
1.4803478 1.3075501 0.73761636 0 255 0
1.4803089 1.3111073 0.74112988 0 255 0
1.4802699 1.3146645 0.74464345 0 255 0
1.480231 1.3182217 0.74815696 0 255 0
1.4801922 1.3217789 0.75167048 0 255 0
1.4801532 1.3253361 0.75518405 0 255 0
1.4801143 1.3288933 0.75869757 0 255 0
1.4800755 1.3324505 0.76221114 0 255 0
1.4800365 1.3360077 0.76572466 0 255 0
1.4799976 1.3395648 0.76923823 0 255 0
1.4799588 1.343122 0.77275175 0 255 0
1.4799198 1.3466792 0.77626526 0 255 0
1.4798809 1.3502364 0.77977884 0 255 0
1.4798419 1.3537936 0.78329235 0 255 0
1.4798031 1.3573508 0.78680593 0 255 0
1.4797642 1.360908 0.79031944 0 255 0
1.4797252 1.3644652 0.79383302 0 255 0
1.4796864 1.3680224 0.79734653 0 255 0
1.4796475 1.3715796 0.80086005 0 255 0
1.4796085 1.3751369 0.80437362 0 255 0
1.4795697 1.3786941 0.80788714 0 255 0
1.4795308 1.3822513 0.81140065 0 255 0
1.4794918 1.3858085 0.81491423 0 255 0
1.479453 1.3893657 0.81842774 0 255 0
1.4794141 1.3929229 0.82194132 0 255 0
1.4793751 1.3964801 0.82545483 0 255 0
1.4793363 1.4000373 0.82896841 0 255 0
1.4792974 1.4035945 0.83248192 0 255 0
1.4792584 1.4071516 0.83599544 0 255 0
1.4792196 1.4107088 0.83950901 0 255 0
1.4791806 1.414266 0.84302253 0 255 0
1.4791417 1.4178232 0.84653604 0 255 0
1.4791028 1.4213804 0.85004961 0 255 0
1.4790639 1.4249376 0.85356319 0 255 0
1.479025 1.4284948 0.8570767 0 255 0
1.4789861 1.432052 0.86059022 0 255 0
1.4789472 1.4356092 0.86410379 0 255 0
1.4789083 1.4391664 0.86761731 0 255 0
1.4788694 1.4427236 0.87113082 0 255 0
1.4788305 1.4462808 0.8746444 0 255 0
1.4787916 1.449838 0.87815797 0 255 0
1.4787527 1.4533952 0.88167149 0 255 0
1.4787138 1.4569525 0.885185 0 255 0
1.4786749 1.4605097 0.88869858 0 255 0
1.478636 1.4640669 0.89221209 0 255 0
1.478597 1.4676241 0.89572567 0 255 0
1.4846224 1.2988529 0.72512281 0 255 0
1.4845835 1.3024101 0.72863638 0 255 0
1.4845445 1.3059673 0.7321499 0 255 0
1.4845057 1.3095245 0.73566341 0 255 0
1.4844668 1.3130816 0.73917699 0 255 0
1.4844278 1.3166388 0.7426905 0 255 0
1.4843889 1.320196 0.74620408 0 255 0
1.4843501 1.3237532 0.74971759 0 255 0
1.4843111 1.3273104 0.75323117 0 255 0
1.4842722 1.3308676 0.75674468 0 255 0
1.4842334 1.3344249 0.7602582 0 255 0
1.4841944 1.3379821 0.76377177 0 255 0
1.4841555 1.3415393 0.76728529 0 255 0
1.4841166 1.3450965 0.77079886 0 255 0
1.4840777 1.3486537 0.77431238 0 255 0
1.4840388 1.3522109 0.77782595 0 255 0
1.4839998 1.3557681 0.78133947 0 255 0
1.483961 1.3593253 0.78485298 0 255 0
1.4839221 1.3628825 0.78836656 0 255 0
1.4838831 1.3664397 0.79188007 0 255 0
1.4838443 1.3699969 0.79539365 0 255 0
1.4838054 1.373554 0.79890716 0 255 0
1.4837664 1.3771112 0.80242068 0 255 0
1.4837276 1.3806684 0.80593425 0 255 0
1.4836887 1.3842256 0.80944777 0 255 0
1.4836497 1.3877828 0.81296134 0 255 0
1.4836109 1.39134 0.81647485 0 255 0
1.483572 1.3948972 0.81998837 0 255 0
1.483533 1.3984544 0.82350194 0 255 0
1.4834942 1.4020116 0.82701546 0 255 0
1.4834552 1.4055688 0.83052903 0 255 0
1.4834163 1.409126 0.83404255 0 255 0
1.4833775 1.4126832 0.83755612 0 255 0
1.4833385 1.4162405 0.84106964 0 255 0
1.4832996 1.4197977 0.84458315 0 255 0
1.4832608 1.4233549 0.84809673 0 255 0
1.4832218 1.4269121 0.85161024 0 255 0
1.4831829 1.4304693 0.85512376 0 255 0
1.483144 1.4340265 0.85863733 0 255 0
1.4831051 1.4375837 0.86215091 0 255 0
1.4830662 1.4411409 0.86566442 0 255 0
1.4830273 1.444698 0.86917794 0 255 0
1.4829884 1.4482552 0.87269151 0 255 0
1.4829495 1.4518124 0.87620503 0 255 0
1.4829106 1.4553696 0.8797186 0 255 0
1.4828717 1.4589268 0.88323212 0 255 0
1.4828328 1.462484 0.88674569 0 255 0
1.4827938 1.4660412 0.89025921 0 255 0
1.4827549 1.4695984 0.89377272 0 255 0
1.4887803 1.3008273 0.72316992 0 255 0
1.4887414 1.3043845 0.72668344 0 255 0
1.4887024 1.3079417 0.73019701 0 255 0
1.4886636 1.3114989 0.73371053 0 255 0
1.4886247 1.3150561 0.7372241 0 255 0
1.4885857 1.3186133 0.74073762 0 255 0
1.4885468 1.3221705 0.74425113 0 255 0
1.488508 1.3257277 0.74776471 0 255 0
1.488469 1.3292849 0.75127822 0 255 0
1.4884301 1.3328421 0.7547918 0 255 0
1.4883912 1.3363993 0.75830531 0 255 0
1.4883523 1.3399565 0.76181889 0 255 0
1.4883134 1.3435137 0.7653324 0 255 0
1.4882745 1.3470709 0.76884592 0 255 0
1.4882356 1.3506281 0.77235949 0 255 0
1.4881967 1.3541852 0.77587301 0 255 0
1.4881577 1.3577424 0.77938658 0 255 0
1.4881189 1.3612996 0.78290009 0 255 0
1.48808 1.3648568 0.78641367 0 255 0
1.488041 1.368414 0.78992718 0 255 0
1.4880022 1.3719712 0.7934407 0 255 0
1.4879633 1.3755285 0.79695427 0 255 0
1.4879243 1.3790857 0.80046779 0 255 0
1.4878855 1.3826429 0.80398136 0 255 0
1.4878466 1.3862001 0.80749488 0 255 0
1.4878076 1.3897573 0.81100839 0 255 0
1.4877688 1.3933145 0.81452197 0 255 0
1.4877298 1.3968717 0.81803548 0 255 0
1.4876909 1.4004289 0.82154906 0 255 0
1.4876521 1.4039861 0.82506257 0 255 0
1.4876131 1.4075433 0.82857609 0 255 0
1.4875742 1.4111004 0.83208966 0 255 0
1.4875354 1.4146576 0.83560318 0 255 0
1.4874964 1.4182148 0.83911675 0 255 0
1.4874575 1.421772 0.84263027 0 255 0
1.4874187 1.4253292 0.84614384 0 255 0
1.4873797 1.4288864 0.84965736 0 255 0
1.4873408 1.4324436 0.85317087 0 255 0
1.4873019 1.4360008 0.85668445 0 255 0
1.487263 1.439558 0.86019796 0 255 0
1.4872241 1.4431152 0.86371154 0 255 0
1.4871852 1.4466724 0.86722505 0 255 0
1.4871463 1.4502296 0.87073863 0 255 0
1.4871074 1.4537868 0.87425214 0 255 0
1.4870684 1.4573441 0.87776566 0 255 0
1.4870296 1.4609013 0.88127923 0 255 0
1.4869907 1.4644585 0.88479275 0 255 0
1.4869517 1.4680157 0.88830632 0 255 0
1.4869128 1.4715729 0.89181983 0 255 0
1.4929382 1.3028017 0.72121704 0 255 0
1.4928993 1.3063588 0.72473055 0 255 0
1.4928603 1.309916 0.72824407 0 255 0
1.4928215 1.3134732 0.73175764 0 255 0
1.4927826 1.3170304 0.73527116 0 255 0
1.4927436 1.3205876 0.73878473 0 255 0
1.4927047 1.3241448 0.74229825 0 255 0
1.4926658 1.327702 0.74581182 0 255 0
1.4926269 1.3312593 0.74932534 0 255 0
1.492588 1.3348165 0.75283891 0 255 0
1.4925491 1.3383737 0.75635242 0 255 0
1.4925102 1.3419309 0.759866 0 255 0
1.4924713 1.3454881 0.76337951 0 255 0
1.4924324 1.3490453 0.76689303 0 255 0
1.4923935 1.3526025 0.7704066 0 255 0
1.4923546 1.3561597 0.77392012 0 255 0
1.4923156 1.3597169 0.77743363 0 255 0
1.4922768 1.3632741 0.78094721 0 255 0
1.4922379 1.3668313 0.78446072 0 255 0
1.4921989 1.3703885 0.7879743 0 255 0
1.4921601 1.3739457 0.79148781 0 255 0
1.4921212 1.3775029 0.79500139 0 255 0
1.4920822 1.3810601 0.7985149 0 255 0
1.4920434 1.3846172 0.80202842 0 255 0
1.4920044 1.3881744 0.80554199 0 255 0
1.4919655 1.3917316 0.80905551 0 255 0
1.4919267 1.3952888 0.81256908 0 255 0
1.4918877 1.398846 0.8160826 0 255 0
1.4918488 1.4024032 0.81959617 0 255 0
1.49181 1.4059604 0.82310969 0 255 0
1.491771 1.4095176 0.8266232 0 255 0
1.4917321 1.4130749 0.83013678 0 255 0
1.4916933 1.4166321 0.83365029 0 255 0
1.4916543 1.4201893 0.83716381 0 255 0
1.4916154 1.4237465 0.84067738 0 255 0
1.4915766 1.4273037 0.8441909 0 255 0
1.4915376 1.4308609 0.84770447 0 255 0
1.4914987 1.4344181 0.85121799 0 255 0
1.4914597 1.4379753 0.85473156 0 255 0
1.4914209 1.4415325 0.85824507 0 255 0
1.491382 1.4450896 0.86175859 0 255 0
1.491343 1.4486468 0.86527216 0 255 0
1.4913042 1.452204 0.86878568 0 255 0
1.4912653 1.4557612 0.87229925 0 255 0
1.4912263 1.4593184 0.87581277 0 255 0
1.4911875 1.4628756 0.87932634 0 255 0
1.4911486 1.4664328 0.88283986 0 255 0
1.4911096 1.46999 0.88635337 0 255 0
1.4910707 1.4735472 0.88986695 0 255 0
1.4970961 1.3047761 0.71926409 0 255 0
1.4970572 1.3083333 0.72277766 0 255 0
1.4970182 1.3118905 0.72629118 0 255 0
1.4969794 1.3154477 0.72980475 0 255 0
1.4969404 1.3190049 0.73331827 0 255 0
1.4969015 1.3225621 0.73683184 0 255 0
1.4968626 1.3261193 0.74034536 0 255 0
1.4968237 1.3296765 0.74385887 0 255 0
1.4967848 1.3332337 0.74737245 0 255 0
1.4967459 1.3367909 0.75088596 0 255 0
1.496707 1.3403481 0.75439954 0 255 0
1.4966681 1.3439053 0.75791305 0 255 0
1.4966292 1.3474625 0.76142663 0 255 0
1.4965903 1.3510196 0.76494014 0 255 0
1.4965514 1.3545768 0.76845372 0 255 0
1.4965125 1.358134 0.77196723 0 255 0
1.4964736 1.3616912 0.77548075 0 255 0
1.4964347 1.3652484 0.77899432 0 255 0
1.4963957 1.3688056 0.78250784 0 255 0
1.4963568 1.3723629 0.78602135 0 255 0
1.496318 1.3759201 0.78953493 0 255 0
1.496279 1.3794773 0.79304844 0 255 0
1.4962401 1.3830345 0.79656202 0 255 0
1.4962013 1.3865917 0.80007553 0 255 0
1.4961623 1.3901489 0.80358911 0 255 0
1.4961234 1.3937061 0.80710262 0 255 0
1.4960846 1.3972633 0.81061614 0 255 0
1.4960456 1.4008205 0.81412971 0 255 0
1.4960067 1.4043777 0.81764323 0 255 0
1.4959679 1.4079349 0.82115674 0 255 0
1.4959289 1.4114921 0.82467031 0 255 0
1.49589 1.4150493 0.82818389 0 255 0
1.495851 1.4186064 0.8316974 0 255 0
1.4958122 1.4221636 0.83521092 0 255 0
1.4957733 1.4257208 0.83872449 0 255 0
1.4957343 1.429278 0.84223801 0 255 0
1.4956955 1.4328352 0.84575152 0 255 0
1.4956566 1.4363924 0.8492651 0 255 0
1.4956176 1.4399496 0.85277861 0 255 0
1.4955788 1.4435068 0.85629219 0 255 0
1.4955399 1.447064 0.8598057 0 255 0
1.4955009 1.4506212 0.86331928 0 255 0
1.4954621 1.4541785 0.86683279 0 255 0
1.4954232 1.4577357 0.87034631 0 255 0
1.4953842 1.4612929 0.87385988 0 255 0
1.4953454 1.4648501 0.8773734 0 255 0
1.4953065 1.4684073 0.88088697 0 255 0
1.4952675 1.4719645 0.88440049 0 255 0
1.4952286 1.4755217 0.88791406 0 255 0
1.501254 1.3067505 0.7173112 0 255 0
1.501215 1.3103077 0.72082478 0 255 0
1.5011761 1.3138649 0.72433829 0 255 0
1.5011373 1.3174222 0.72785181 0 255 0
1.5010983 1.3209792 0.73136538 0 255 0
1.5010594 1.3245364 0.7348789 0 255 0
1.5010206 1.3280936 0.73839247 0 255 0
1.5009816 1.3316509 0.74190599 0 255 0
1.5009427 1.3352081 0.74541956 0 255 0
1.5009038 1.3387653 0.74893308 0 255 0
1.5008649 1.3423225 0.75244665 0 255 0
1.500826 1.3458797 0.75596017 0 255 0
1.500787 1.3494369 0.75947368 0 255 0
1.5007482 1.3529941 0.76298726 0 255 0
1.5007093 1.3565513 0.76650077 0 255 0
1.5006703 1.3601085 0.77001435 0 255 0
1.5006315 1.3636657 0.77352786 0 255 0
1.5005926 1.3672229 0.77704138 0 255 0
1.5005536 1.3707801 0.78055495 0 255 0
1.5005147 1.3743373 0.78406847 0 255 0
1.5004759 1.3778945 0.78758204 0 255 0
1.5004369 1.3814517 0.79109555 0 255 0
1.500398 1.3850088 0.79460907 0 255 0
1.5003592 1.388566 0.79812264 0 255 0
1.5003202 1.3921232 0.80163616 0 255 0
1.5002813 1.3956804 0.80514973 0 255 0
1.5002425 1.3992376 0.80866325 0 255 0
1.5002035 1.4027948 0.81217682 0 255 0
1.5001646 1.406352 0.81569034 0 255 0
1.5001256 1.4099092 0.81920385 0 255 0
1.5000868 1.4134665 0.82271743 0 255 0
1.5000479 1.4170237 0.82623094 0 255 0
1.5000089 1.4205809 0.82974446 0 255 0
1.4999701 1.4241381 0.83325803 0 255 0
1.4999312 1.4276953 0.83677155 0 255 0
1.4998922 1.4312525 0.84028512 0 255 0
1.4998534 1.4348097 0.84379864 0 255 0
1.4998145 1.4383669 0.84731221 0 255 0
1.4997755 1.4419241 0.85082573 0 255 0
1.4997367 1.4454813 0.85433924 0 255 0
1.4996978 1.4490385 0.85785282 0 255 0
1.4996588 1.4525956 0.86136633 0 255 0
1.49962 1.4561528 0.86487991 0 255 0
1.4995811 1.45971 0.86839342 0 255 0
1.4995421 1.4632672 0.871907 0 255 0
1.4995033 1.4668244 0.87542051 0 255 0
1.4994643 1.4703816 0.87893403 0 255 0
1.4994254 1.4739388 0.8824476 0 255 0
1.4993865 1.477496 0.88596117 0 255 0
1.5054119 1.3087249 0.71535832 0 255 0
1.5053729 1.3122821 0.71887183 0 255 0
1.505334 1.3158393 0.72238541 0 255 0
1.5052952 1.3193965 0.72589892 0 255 0
1.5052562 1.3229537 0.7294125 0 255 0
1.5052173 1.3265109 0.73292601 0 255 0
1.5051785 1.3300681 0.73643959 0 255 0
1.5051395 1.3336253 0.7399531 0 255 0
1.5051006 1.3371825 0.74346662 0 255 0
1.5050616 1.3407397 0.74698019 0 255 0
1.5050228 1.3442969 0.75049371 0 255 0
1.5049839 1.3478541 0.75400728 0 255 0
1.5049449 1.3514113 0.75752079 0 255 0
1.5049061 1.3549685 0.76103437 0 255 0
1.5048672 1.3585258 0.76454788 0 255 0
1.5048282 1.3620828 0.7680614 0 255 0
1.5047894 1.36564 0.77157497 0 255 0
1.5047505 1.3691972 0.77508849 0 255 0
1.5047115 1.3727545 0.778602 0 255 0
1.5046726 1.3763117 0.78211558 0 255 0
1.5046338 1.3798689 0.78562909 0 255 0
1.5045948 1.3834261 0.78914267 0 255 0
1.5045559 1.3869833 0.79265618 0 255 0
1.5045171 1.3905405 0.79616976 0 255 0
1.5044781 1.3940977 0.79968327 0 255 0
1.5044392 1.3976549 0.80319679 0 255 0
1.5044003 1.4012121 0.80671036 0 255 0
1.5043614 1.4047693 0.81022388 0 255 0
1.5043225 1.4083265 0.81373745 0 255 0
1.5042835 1.4118837 0.81725097 0 255 0
1.5042447 1.4154409 0.82076454 0 255 0
1.5042058 1.418998 0.82427806 0 255 0
1.5041668 1.4225552 0.82779157 0 255 0
1.504128 1.4261124 0.83130515 0 255 0
1.5040891 1.4296696 0.83481866 0 255 0
1.5040501 1.4332268 0.83833218 0 255 0
1.5040113 1.436784 0.84184575 0 255 0
1.5039724 1.4403412 0.84535927 0 255 0
1.5039334 1.4438984 0.84887284 0 255 0
1.5038946 1.4474556 0.85238636 0 255 0
1.5038557 1.4510128 0.85589993 0 255 0
1.5038167 1.4545701 0.85941344 0 255 0
1.5037779 1.4581273 0.86292696 0 255 0
1.5037389 1.4616845 0.86644053 0 255 0
1.5037 1.4652417 0.86995411 0 255 0
1.5036612 1.4687989 0.87346762 0 255 0
1.5036222 1.4723561 0.87698114 0 255 0
1.5035833 1.4759133 0.88049471 0 255 0
1.5035444 1.4794705 0.88400823 0 255 0
1.5095698 1.3106993 0.71340543 0 255 0
1.5095308 1.3142565 0.71691895 0 255 0
1.5094919 1.3178138 0.72043246 0 255 0
1.5094531 1.3213708 0.72394603 0 255 0
1.5094141 1.324928 0.72745955 0 255 0
1.5093752 1.3284853 0.73097312 0 255 0
1.5093362 1.3320425 0.73448664 0 255 0
1.5092974 1.3355997 0.73800021 0 255 0
1.5092585 1.3391569 0.74151373 0 255 0
1.5092195 1.3427141 0.7450273 0 255 0
1.5091807 1.3462713 0.74854082 0 255 0
1.5091418 1.3498285 0.75205433 0 255 0
1.5091028 1.3533857 0.75556791 0 255 0
1.509064 1.3569429 0.75908142 0 255 0
1.5090251 1.3605001 0.762595 0 255 0
1.5089861 1.3640573 0.76610851 0 255 0
1.5089473 1.3676145 0.76962209 0 255 0
1.5089084 1.3711717 0.7731356 0 255 0
1.5088694 1.3747289 0.77664912 0 255 0
1.5088305 1.3782861 0.78016269 0 255 0
1.5087916 1.3818433 0.78367621 0 255 0
1.5087527 1.3854005 0.78718972 0 255 0
1.5087138 1.3889577 0.7907033 0 255 0
1.5086749 1.3925149 0.79421681 0 255 0
1.508636 1.396072 0.79773039 0 255 0
1.5085971 1.3996292 0.8012439 0 255 0
1.5085582 1.4031864 0.80475748 0 255 0
1.5085193 1.4067436 0.80827099 0 255 0
1.5084804 1.4103009 0.81178451 0 255 0
1.5084414 1.4138581 0.81529808 0 255 0
1.5084026 1.4174153 0.8188116 0 255 0
1.5083637 1.4209725 0.82232517 0 255 0
1.5083247 1.4245297 0.82583869 0 255 0
1.5082859 1.4280869 0.82935226 0 255 0
1.508247 1.4316441 0.83286577 0 255 0
1.508208 1.4352013 0.83637929 0 255 0
1.5081692 1.4387585 0.83989286 0 255 0
1.5081302 1.4423157 0.84340638 0 255 0
1.5080913 1.4458729 0.84691989 0 255 0
1.5080525 1.4494301 0.85043347 0 255 0
1.5080135 1.4529873 0.85394704 0 255 0
1.5079746 1.4565445 0.85746056 0 255 0
1.5079358 1.4601016 0.86097407 0 255 0
1.5078968 1.4636588 0.86448765 0 255 0
1.5078579 1.467216 0.86800116 0 255 0
1.5078191 1.4707732 0.87151468 0 255 0
1.5077801 1.4743304 0.87502825 0 255 0
1.5077412 1.4778876 0.87854183 0 255 0
1.5077024 1.4814448 0.88205534 0 255 0
1.5137275 1.3126737 0.71145248 0 255 0
1.5136887 1.3162309 0.71496606 0 255 0
1.5136498 1.3197881 0.71847957 0 255 0
1.5136108 1.3233453 0.72199315 0 255 0
1.513572 1.3269025 0.72550666 0 255 0
1.5135331 1.3304597 0.72902024 0 255 0
1.5134941 1.3340169 0.73253375 0 255 0
1.5134553 1.3375741 0.73604727 0 255 0
1.5134164 1.3411313 0.73956084 0 255 0
1.5133774 1.3446885 0.74307436 0 255 0
1.5133386 1.3482457 0.74658793 0 255 0
1.5132997 1.3518029 0.75010145 0 255 0
1.5132607 1.3553602 0.75361502 0 255 0
1.5132219 1.3589174 0.75712854 0 255 0
1.5131829 1.3624744 0.76064205 0 255 0
1.513144 1.3660316 0.76415563 0 255 0
1.5131052 1.3695889 0.76766914 0 255 0
1.5130662 1.3731461 0.77118272 0 255 0
1.5130273 1.3767033 0.77469623 0 255 0
1.5129884 1.3802605 0.77820981 0 255 0
1.5129495 1.3838177 0.78172332 0 255 0
1.5129106 1.3873749 0.78523684 0 255 0
1.5128717 1.3909321 0.78875041 0 255 0
1.5128328 1.3944893 0.79226393 0 255 0
1.5127939 1.3980465 0.79577744 0 255 0
1.512755 1.4016037 0.79929101 0 255 0
1.5127161 1.4051609 0.80280453 0 255 0
1.5126772 1.4087181 0.8063181 0 255 0
1.5126383 1.4122753 0.80983162 0 255 0
1.5125993 1.4158325 0.81334519 0 255 0
1.5125605 1.4193897 0.81685871 0 255 0
1.5125215 1.4229469 0.82037222 0 255 0
1.5124826 1.4265041 0.8238858 0 255 0
1.5124438 1.4300612 0.82739931 0 255 0
1.5124048 1.4336184 0.83091283 0 255 0
1.5123659 1.4371756 0.8344264 0 255 0
1.5123271 1.4407328 0.83793998 0 255 0
1.5122881 1.44429 0.84145349 0 255 0
1.5122492 1.4478472 0.84496701 0 255 0
1.5122104 1.4514045 0.84848058 0 255 0
1.5121714 1.4549617 0.8519941 0 255 0
1.5121325 1.4585189 0.85550761 0 255 0
1.5120937 1.4620761 0.85902119 0 255 0
1.5120547 1.4656333 0.86253476 0 255 0
1.5120158 1.4691905 0.86604828 0 255 0
1.511977 1.4727477 0.86956179 0 255 0
1.511938 1.4763049 0.87307537 0 255 0
1.5118991 1.4798621 0.87658888 0 255 0
1.5118601 1.4834193 0.88010246 0 255 0
1.5178854 1.3146482 0.7094996 0 255 0
1.5178466 1.3182054 0.71301317 0 255 0
1.5178077 1.3217626 0.71652669 0 255 0
1.5177687 1.3253198 0.7200402 0 255 0
1.5177299 1.328877 0.72355378 0 255 0
1.517691 1.3324342 0.72706729 0 255 0
1.517652 1.3359913 0.73058087 0 255 0
1.5176132 1.3395485 0.73409438 0 255 0
1.5175743 1.3431057 0.73760796 0 255 0
1.5175353 1.3466629 0.74112147 0 255 0
1.5174965 1.3502201 0.74463505 0 255 0
1.5174575 1.3537773 0.74814856 0 255 0
1.5174186 1.3573345 0.75166208 0 255 0
1.5173798 1.3608917 0.75517565 0 255 0
1.5173408 1.3644489 0.75868917 0 255 0
1.5173019 1.3680061 0.76220274 0 255 0
1.5172631 1.3715633 0.76571625 0 255 0
1.5172241 1.3751205 0.76922977 0 255 0
1.5171852 1.3786777 0.77274334 0 255 0
1.5171463 1.3822349 0.77625686 0 255 0
1.5171074 1.3857921 0.77977043 0 255 0
1.5170685 1.3893493 0.78328395 0 255 0
1.5170296 1.3929065 0.78679746 0 255 0
1.5169907 1.3964636 0.79031104 0 255 0
1.5169518 1.4000208 0.79382455 0 255 0
1.5169129 1.403578 0.79733813 0 255 0
1.516874 1.4071352 0.80085164 0 255 0
1.5168351 1.4106925 0.80436516 0 255 0
1.5167961 1.4142497 0.80787873 0 255 0
1.5167572 1.4178069 0.81139225 0 255 0
1.5167184 1.4213641 0.81490582 0 255 0
1.5166794 1.4249213 0.81841934 0 255 0
1.5166405 1.4284785 0.82193291 0 255 0
1.5166017 1.4320357 0.82544643 0 255 0
1.5165627 1.4355929 0.82895994 0 255 0
1.5165238 1.4391501 0.83247352 0 255 0
1.516485 1.4427073 0.83598703 0 255 0
1.516446 1.4462645 0.83950055 0 255 0
1.5164071 1.4498217 0.84301412 0 255 0
1.5163683 1.4533789 0.8465277 0 255 0
1.5163293 1.4569361 0.85004121 0 255 0
1.5162904 1.4604933 0.85355473 0 255 0
1.5162516 1.4640504 0.8570683 0 255 0
1.5162126 1.4676076 0.86058182 0 255 0
1.5161737 1.4711648 0.86409539 0 255 0
1.5161347 1.474722 0.8676089 0 255 0
1.5160959 1.4782792 0.87112248 0 255 0
1.516057 1.4818364 0.87463599 0 255 0
1.516018 1.4853936 0.87814951 0 255 0
1.5220433 1.3166225 0.70754671 0 255 0
1.5220045 1.3201797 0.71106023 0 255 0
1.5219656 1.3237369 0.7145738 0 255 0
1.5219266 1.3272941 0.71808732 0 255 0
1.5218878 1.3308513 0.72160089 0 255 0
1.5218489 1.3344085 0.72511441 0 255 0
1.5218099 1.3379657 0.72862798 0 255 0
1.5217711 1.3415229 0.73214149 0 255 0
1.5217321 1.3450801 0.73565507 0 255 0
1.5216932 1.3486373 0.73916858 0 255 0
1.5216544 1.3521945 0.7426821 0 255 0
1.5216154 1.3557518 0.74619567 0 255 0
1.5215765 1.359309 0.74970919 0 255 0
1.5215377 1.3628662 0.75322276 0 255 0
1.5214987 1.3664234 0.75673628 0 255 0
1.5214598 1.3699806 0.76024985 0 255 0
1.521421 1.3735377 0.76376337 0 255 0
1.521382 1.3770949 0.76727688 0 255 0
1.5213431 1.3806521 0.77079046 0 255 0
1.5213042 1.3842093 0.77430397 0 255 0
1.5212653 1.3877665 0.77781749 0 255 0
1.5212264 1.3913237 0.78133106 0 255 0
1.5211875 1.3948809 0.78484458 0 255 0
1.5211486 1.3984381 0.78835815 0 255 0
1.5211097 1.4019953 0.79187167 0 255 0
1.5210707 1.4055525 0.79538524 0 255 0
1.5210319 1.4091097 0.79889876 0 255 0
1.520993 1.4126669 0.80241227 0 255 0
1.520954 1.4162241 0.80592585 0 255 0
1.5209152 1.4197813 0.80943936 0 255 0
1.5208763 1.4233385 0.81295294 0 255 0
1.5208373 1.4268957 0.81646645 0 255 0
1.5207984 1.4304528 0.81998003 0 255 0
1.5207596 1.43401 0.82349354 0 255 0
1.5207206 1.4375672 0.82700706 0 255 0
1.5206817 1.4411244 0.83052063 0 255 0
1.5206429 1.4446816 0.83403414 0 255 0
1.5206039 1.4482388 0.83754766 0 255 0
1.520565 1.4517961 0.84106123 0 255 0
1.5205262 1.4553533 0.84457475 0 255 0
1.5204872 1.4589105 0.84808832 0 255 0
