ply
format ascii 1.0
comment PCL generated
element vertex 1224
property float x
property float y
property float z
property uchar red
property uchar green
property uchar blue
element camera 0
property float view_px
property float view_py
property float view_pz
property float x_axisx
property float x_axisy
property float x_axisz
property float y_axisx
property float y_axisy
property float y_axisz
property float z_axisx
property float z_axisy
property float z_axisz
property float focal
property float scalex
property float scaley
property float centerx
property float centery
property int viewportx
property int viewporty
property float k1
property float k2
end_header
1.2477319 1.4273372 0.68349832 255 0 0
1.2460659 1.4290811 0.6817143 255 0 0
1.2443998 1.4308251 0.67993021 255 0 0
1.2427337 1.432569 0.67814612 255 0 0
1.2410675 1.4343129 0.6763621 255 0 0
1.2394015 1.4360569 0.67457801 255 0 0
1.2377354 1.4378009 0.67279398 255 0 0
1.2360693 1.4395448 0.6710099 255 0 0
1.2344033 1.4412887 0.66922581 255 0 0
1.2327372 1.4430327 0.66744179 255 0 0
1.2310711 1.4447767 0.6656577 255 0 0
1.229405 1.4465206 0.66387367 255 0 0
1.227739 1.4482646 0.66208959 255 0 0
1.2260729 1.4500085 0.6603055 255 0 0
1.2244068 1.4517524 0.65852147 255 0 0
1.2227408 1.4534963 0.65673739 255 0 0
1.2210747 1.4552404 0.6549533 255 0 0
1.2194086 1.4569843 0.65316927 255 0 0
1.2177426 1.4587282 0.65138519 255 0 0
1.2160765 1.4604722 0.6496011 255 0 0
1.2144104 1.4622161 0.64781708 255 0 0
1.2127444 1.4639601 0.64603299 255 0 0
1.2110782 1.4657041 0.6442489 255 0 0
1.3759962 1.2951875 0.82297939 255 0 0
1.3743302 1.2969315 0.8211953 255 0 0
1.3726641 1.2986754 0.81941128 255 0 0
1.370998 1.3004193 0.81762719 255 0 0
1.369332 1.3021634 0.81584311 255 0 0
1.3676659 1.3039073 0.81405902 255 0 0
1.3659998 1.3056512 0.81227499 255 0 0
1.3643336 1.3073952 0.81049091 255 0 0
1.3626676 1.3091391 0.80870688 255 0 0
1.3610015 1.310883 0.80692279 255 0 0
1.3593354 1.3126271 0.80513871 255 0 0
1.3576694 1.314371 0.80335462 255 0 0
1.3560033 1.3161149 0.80157059 255 0 0
1.3543372 1.3178588 0.79978651 255 0 0
1.3526711 1.3196028 0.79800248 255 0 0
1.3510051 1.3213468 0.7962184 255 0 0
1.349339 1.3230907 0.79443431 255 0 0
1.3476729 1.3248346 0.79265028 255 0 0
1.3460069 1.3265786 0.7908662 255 0 0
1.3443408 1.3283225 0.78908217 255 0 0
1.3426747 1.3300664 0.78729808 255 0 0
1.3410087 1.3318105 0.785514 255 0 0
1.3393426 1.3335544 0.78372997 255 0 0
1.3376765 1.3352983 0.78194588 255 0 0
1.3360105 1.3370423 0.78016186 255 0 0
1.3343444 1.3387862 0.77837777 255 0 0
1.3326783 1.3405302 0.77659369 255 0 0
1.3310122 1.3422741 0.77480966 255 0 0
1.3293462 1.3440181 0.77302557 255 0 0
1.3276801 1.345762 0.77124155 255 0 0
1.326014 1.3475059 0.76945746 255 0 0
1.324348 1.34925 0.76767337 255 0 0
1.3226819 1.3509939 0.76588935 255 0 0
1.3210158 1.3527378 0.76410526 255 0 0
1.3193498 1.3544817 0.76232123 255 0 0
1.3176837 1.3562257 0.76053715 255 0 0
1.3160175 1.3579696 0.75875306 255 0 0
1.3143514 1.3597136 0.75696903 255 0 0
1.3126854 1.3614576 0.75518495 255 0 0
1.3110193 1.3632015 0.75340086 255 0 0
1.3093532 1.3649454 0.75161684 255 0 0
1.3076872 1.3666894 0.74983275 255 0 0
1.3060211 1.3684334 0.74804866 255 0 0
1.304355 1.3701773 0.74626464 255 0 0
1.302689 1.3719212 0.74448055 255 0 0
1.3010229 1.3736652 0.74269652 255 0 0
1.2993568 1.3754091 0.74091244 255 0 0
1.2976907 1.377153 0.73912835 255 0 0
1.2960247 1.3788971 0.73734432 255 0 0
1.2943586 1.380641 0.73556024 255 0 0
1.2926925 1.3823849 0.73377615 255 0 0
1.2910265 1.3841288 0.73199213 255 0 0
1.2893604 1.3858728 0.73020804 255 0 0
1.2876943 1.3876168 0.72842401 255 0 0
1.2860283 1.3893607 0.72663993 255 0 0
1.2843622 1.3911047 0.72485584 255 0 0
1.2826961 1.3928486 0.72307181 255 0 0
1.2810299 1.3945925 0.72128773 255 0 0
1.2793639 1.3963366 0.71950364 255 0 0
1.2776978 1.3980805 0.71771961 255 0 0
1.2760317 1.3998244 0.71593553 255 0 0
1.2743657 1.4015683 0.71415144 255 0 0
1.2726996 1.4033123 0.71236742 255 0 0
1.2710335 1.4050562 0.71058333 255 0 0
1.2693675 1.4068002 0.7087993 255 0 0
1.2677014 1.4085442 0.70701522 255 0 0
1.2660353 1.4102881 0.70523113 255 0 0
1.2643692 1.412032 0.7034471 255 0 0
1.2627032 1.4137759 0.70166302 255 0 0
1.2610371 1.41552 0.69987899 255 0 0
1.259371 1.4172639 0.6980949 255 0 0
1.257705 1.4190078 0.69631082 255 0 0
1.2560389 1.4207518 0.69452679 255 0 0
1.2543728 1.4224957 0.69274271 255 0 0
1.2527068 1.4242396 0.69095868 255 0 0
1.2510407 1.4259837 0.68917459 255 0 0
1.2493746 1.4277276 0.68739051 255 0 0
1.2477086 1.4294715 0.68560648 255 0 0
1.2460425 1.4312154 0.68382239 255 0 0
1.2443764 1.4329594 0.68203831 255 0 0
1.2427104 1.4347034 0.68025428 255 0 0
1.2410443 1.4364473 0.67847019 255 0 0
1.2393782 1.4381912 0.67668617 255 0 0
1.2377121 1.4399352 0.67490208 255 0 0
1.2360461 1.4416791 0.673118 255 0 0
1.23438 1.443423 0.67133397 255 0 0
1.2327139 1.4451671 0.66954988 255 0 0
1.2310479 1.446911 0.66776586 255 0 0
1.2293817 1.4486549 0.66598177 255 0 0
1.2277156 1.4503989 0.66419768 255 0 0
1.2260495 1.4521428 0.66241366 255 0 0
1.2243835 1.4538867 0.66062957 255 0 0
1.2227174 1.4556307 0.65884548 255 0 0
1.2210513 1.4573747 0.65706146 255 0 0
1.2193853 1.4591186 0.65527737 255 0 0
1.2177192 1.4608625 0.65349329 255 0 0
1.2160531 1.4626065 0.65170926 255 0 0
1.2143871 1.4643505 0.64992517 255 0 0
1.212721 1.4660944 0.64814109 255 0 0
1.2110549 1.4678384 0.64635706 255 0 0
1.3759729 1.2973218 0.82508755 255 0 0
1.3743068 1.2990658 0.82330346 255 0 0
1.3726407 1.3008097 0.82151937 255 0 0
1.3709747 1.3025537 0.81973529 255 0 0
1.3693086 1.3042977 0.81795126 255 0 0
1.3676425 1.3060416 0.81616718 255 0 0
1.3659765 1.3077855 0.81438309 255 0 0
1.3643104 1.3095295 0.812599 255 0 0
1.3626443 1.3112735 0.81081498 255 0 0
1.3609782 1.3130174 0.80903089 255 0 0
1.3593122 1.3147614 0.80724686 255 0 0
1.357646 1.3165053 0.80546278 255 0 0
1.3559799 1.3182492 0.80367869 255 0 0
1.3543139 1.3199931 0.80189466 255 0 0
1.3526478 1.3217372 0.80011058 255 0 0
1.3509817 1.3234811 0.79832649 255 0 0
1.3493156 1.325225 0.79654247 255 0 0
1.3476496 1.3269689 0.79475838 255 0 0
1.3459835 1.3287129 0.79297435 255 0 0
1.3443174 1.3304569 0.79119027 255 0 0
1.3426514 1.3322008 0.78940618 255 0 0
1.3409853 1.3339448 0.78762215 255 0 0
1.3393192 1.3356887 0.78583807 255 0 0
1.3376532 1.3374326 0.78405404 255 0 0
1.3359871 1.3391767 0.78226995 255 0 0
1.334321 1.3409206 0.78048587 255 0 0
1.332655 1.3426645 0.77870184 255 0 0
1.3309889 1.3444084 0.77691776 255 0 0
1.3293228 1.3461524 0.77513373 255 0 0
1.3276567 1.3478963 0.77334964 255 0 0
1.3259907 1.3496403 0.77156556 255 0 0
1.3243246 1.3513842 0.76978153 255 0 0
1.3226585 1.3531282 0.76799744 255 0 0
1.3209925 1.3548721 0.76621342 255 0 0
1.3193264 1.356616 0.76442933 255 0 0
1.3176603 1.3583601 0.76264524 255 0 0
1.3159943 1.360104 0.76086122 255 0 0
1.3143282 1.3618479 0.75907713 255 0 0
1.3126621 1.3635919 0.75729305 255 0 0
1.3109961 1.3653358 0.75550902 255 0 0
1.3093299 1.3670797 0.75372493 255 0 0
1.3076638 1.3688236 0.75194085 255 0 0
1.3059977 1.3705677 0.75015682 255 0 0
1.3043317 1.3723116 0.74837273 255 0 0
1.3026656 1.3740555 0.74658871 255 0 0
1.3009995 1.3757995 0.74480462 255 0 0
1.2993335 1.3775434 0.74302053 255 0 0
1.2976674 1.3792874 0.74123651 255 0 0
1.2960013 1.3810314 0.73945242 255 0 0
1.2943352 1.3827753 0.7376684 255 0 0
1.2926692 1.3845192 0.73588431 255 0 0
1.2910031 1.3862631 0.73410022 255 0 0
1.289337 1.3880072 0.7323162 255 0 0
1.287671 1.3897511 0.73053211 255 0 0
1.2860049 1.391495 0.72874802 255 0 0
1.2843388 1.393239 0.726964 255 0 0
1.2826728 1.3949829 0.72517991 255 0 0
1.2810067 1.3967268 0.72339582 255 0 0
1.2793406 1.3984709 0.7216118 255 0 0
1.2776746 1.4002148 0.71982771 255 0 0
1.2760084 1.4019587 0.71804368 255 0 0
1.2743423 1.4037026 0.7162596 255 0 0
1.2726762 1.4054466 0.71447551 255 0 0
1.2710102 1.4071906 0.71269149 255 0 0
1.2693441 1.4089345 0.7109074 255 0 0
1.267678 1.4106785 0.70912331 255 0 0
1.266012 1.4124224 0.70733929 255 0 0
1.2643459 1.4141663 0.7055552 255 0 0
1.2626798 1.4159102 0.70377117 255 0 0
1.2610137 1.4176543 0.70198709 255 0 0
1.2593477 1.4193982 0.700203 255 0 0
1.2576816 1.4211421 0.69841897 255 0 0
1.2560155 1.4228861 0.69663489 255 0 0
1.2543495 1.42463 0.69485086 255 0 0
1.2526834 1.426374 0.69306678 255 0 0
1.2510173 1.4281179 0.69128269 255 0 0
1.2493513 1.4298619 0.68949866 255 0 0
1.2476852 1.4316058 0.68771458 255 0 0
1.2460191 1.4333497 0.68593049 255 0 0
1.2443531 1.4350938 0.68414646 255 0 0
1.242687 1.4368377 0.68236238 255 0 0
1.2410209 1.4385816 0.68057835 255 0 0
1.2393548 1.4403255 0.67879426 255 0 0
1.2376888 1.4420695 0.67701018 255 0 0
1.2360227 1.4438134 0.67522615 255 0 0
1.2343566 1.4455574 0.67344207 255 0 0
1.2326906 1.4473014 0.67165804 255 0 0
1.2310245 1.4490453 0.66987395 255 0 0
1.2293584 1.4507892 0.66808987 255 0 0
1.2276924 1.4525332 0.66630584 255 0 0
1.2260263 1.4542772 0.66452175 255 0 0
1.2243602 1.4560211 0.66273773 255 0 0
1.222694 1.457765 0.66095364 255 0 0
1.221028 1.459509 0.65916955 255 0 0
1.2193619 1.4612529 0.65738547 255 0 0
1.2176958 1.4629968 0.65560144 255 0 0
1.2160298 1.4647409 0.65381736 255 0 0
1.2143637 1.4664848 0.65203327 255 0 0
1.2126976 1.4682287 0.65024924 255 0 0
1.2110316 1.4699727 0.64846516 255 0 0
1.3759495 1.2994561 0.82719564 255 0 0
1.3742834 1.3012002 0.82541156 255 0 0
1.3726174 1.3029441 0.82362747 255 0 0
1.3709513 1.304688 0.82184339 255 0 0
1.3692852 1.306432 0.82005936 255 0 0
1.3676192 1.3081759 0.81827527 255 0 0
1.3659531 1.3099198 0.81649125 255 0 0
1.364287 1.3116639 0.81470716 255 0 0
1.3626209 1.3134078 0.81292307 255 0 0
1.3609549 1.3151517 0.81113905 255 0 0
1.3592888 1.3168956 0.80935496 255 0 0
1.3576227 1.3186396 0.80757087 255 0 0
1.3559567 1.3203835 0.80578685 255 0 0
1.3542906 1.3221275 0.80400276 255 0 0
1.3526245 1.3238714 0.80221874 255 0 0
1.3509585 1.3256154 0.80043465 255 0 0
1.3492923 1.3273593 0.79865056 255 0 0
1.3476262 1.3291032 0.79686654 255 0 0
1.3459601 1.3308473 0.79508245 255 0 0
1.3442941 1.3325912 0.79329842 255 0 0
1.342628 1.3343351 0.79151434 255 0 0
1.3409619 1.3360791 0.78973025 255 0 0
1.3392959 1.337823 0.78794622 255 0 0
1.3376298 1.3395669 0.78616214 255 0 0
1.3359637 1.3413109 0.78437805 255 0 0
1.3342977 1.3430549 0.78259403 255 0 0
1.3326316 1.3447988 0.78080994 255 0 0
1.3309655 1.3465427 0.77902591 255 0 0
1.3292994 1.3482867 0.77724183 255 0 0
1.3276334 1.3500307 0.77545774 255 0 0
1.3259673 1.3517746 0.77367371 255 0 0
1.3243012 1.3535185 0.77188963 255 0 0
1.3226352 1.3552625 0.7701056 255 0 0
1.3209691 1.3570064 0.76832151 255 0 0
1.319303 1.3587503 0.76653743 255 0 0
1.317637 1.3604944 0.7647534 255 0 0
1.3159709 1.3622383 0.76296932 255 0 0
1.3143048 1.3639822 0.76118529 255 0 0
1.3126388 1.3657262 0.7594012 255 0 0
1.3109727 1.3674701 0.75761712 255 0 0
1.3093066 1.3692141 0.75583309 255 0 0
1.3076406 1.370958 0.754049 255 0 0
1.3059745 1.372702 0.75226492 255 0 0
1.3043084 1.3744459 0.75048089 255 0 0
1.3026423 1.3761898 0.7486968 255 0 0
1.3009763 1.3779339 0.74691272 255 0 0
1.2993101 1.3796778 0.74512869 255 0 0
1.297644 1.3814217 0.7433446 255 0 0
1.295978 1.3831656 0.74156058 255 0 0
1.2943119 1.3849096 0.73977649 255 0 0
1.2926458 1.3866535 0.73799241 255 0 0
1.2909797 1.3883975 0.73620838 255 0 0
1.2893137 1.3901415 0.73442429 255 0 0
1.2876476 1.3918854 0.73264021 255 0 0
1.2859815 1.3936293 0.73085618 255 0 0
1.2843155 1.3953733 0.72907209 255 0 0
1.2826494 1.3971173 0.72728807 255 0 0
1.2809833 1.3988612 0.72550398 255 0 0
1.2793173 1.4006051 0.72371989 255 0 0
1.2776512 1.4023491 0.72193587 255 0 0
1.2759851 1.404093 0.72015178 255 0 0
1.2743191 1.4058369 0.7183677 255 0 0
1.272653 1.407581 0.71658367 255 0 0
1.2709869 1.4093249 0.71479958 255 0 0
1.2693208 1.4110688 0.71301556 255 0 0
1.2676548 1.4128127 0.71123147 255 0 0
1.2659887 1.4145567 0.70944738 255 0 0
1.2643225 1.4163007 0.70766336 255 0 0
1.2626565 1.4180446 0.70587927 255 0 0
1.2609904 1.4197886 0.70409518 255 0 0
1.2593243 1.4215325 0.70231116 255 0 0
1.2576582 1.4232764 0.70052707 255 0 0
1.2559922 1.4250205 0.69874305 255 0 0
1.2543261 1.4267644 0.69695896 255 0 0
1.25266 1.4285083 0.69517487 255 0 0
1.250994 1.4302522 0.69339085 255 0 0
1.2493279 1.4319962 0.69160676 255 0 0
1.2476618 1.4337401 0.68982273 255 0 0
1.2459958 1.4354841 0.68803865 255 0 0
1.2443297 1.4372281 0.68625456 255 0 0
1.2426636 1.438972 0.68447053 255 0 0
1.2409976 1.4407159 0.68268645 255 0 0
1.2393315 1.4424598 0.68090236 255 0 0
1.2376654 1.4442039 0.67911834 255 0 0
1.2359993 1.4459478 0.67733425 255 0 0
1.2343333 1.4476917 0.67555022 255 0 0
1.2326672 1.4494357 0.67376614 255 0 0
1.2310011 1.4511796 0.67198205 255 0 0
1.2293351 1.4529235 0.67019802 255 0 0
1.227669 1.4546674 0.66841394 255 0 0
1.2260029 1.4564115 0.66662991 255 0 0
1.2243369 1.4581554 0.66484582 255 0 0
1.2226708 1.4598993 0.66306174 255 0 0
1.2210047 1.4616433 0.66127771 255 0 0
1.2193387 1.4633873 0.65949363 255 0 0
1.2176725 1.4651312 0.65770954 255 0 0
1.2160064 1.4668752 0.65592551 255 0 0
1.2143403 1.4686191 0.65414143 255 0 0
1.2126743 1.470363 0.65235734 255 0 0
1.2110082 1.4721071 0.65057325 255 0 0
1.3759263 1.3015904 0.82930374 255 0 0
1.3742602 1.3033345 0.82751966 255 0 0
1.372594 1.3050784 0.82573563 255 0 0
1.3709279 1.3068223 0.82395154 255 0 0
1.3692619 1.3085663 0.82216752 255 0 0
1.3675958 1.3103102 0.82038343 255 0 0
1.3659297 1.3120542 0.81859934 255 0 0
1.3642637 1.3137982 0.81681526 255 0 0
1.3625976 1.3155421 0.81503123 255 0 0
1.3609315 1.317286 0.81324714 255 0 0
1.3592654 1.3190299 0.81146312 255 0 0
1.3575994 1.320774 0.80967903 255 0 0
1.3559333 1.3225179 0.80789495 255 0 0
1.3542672 1.3242618 0.80611086 255 0 0
1.3526012 1.3260057 0.80432683 255 0 0
1.3509351 1.3277497 0.80254275 255 0 0
1.349269 1.3294936 0.80075872 255 0 0
1.347603 1.3312376 0.79897463 255 0 0
1.3459369 1.3329816 0.79719055 255 0 0
1.3442708 1.3347255 0.79540652 255 0 0
1.3426048 1.3364694 0.79362243 255 0 0
1.3409386 1.3382134 0.79183841 255 0 0
1.3392725 1.3399574 0.79005432 255 0 0
1.3376064 1.3417013 0.78827024 255 0 0
1.3359404 1.3434452 0.78648621 255 0 0
1.3342743 1.3451892 0.78470212 255 0 0
1.3326082 1.3469331 0.7829181 255 0 0
1.3309422 1.348677 0.78113401 255 0 0
1.3292761 1.3504211 0.77934992 255 0 0
1.32761 1.352165 0.7775659 255 0 0
1.3259439 1.3539089 0.77578181 255 0 0
1.3242779 1.3556528 0.77399778 255 0 0
1.3226118 1.3573968 0.7722137 255 0 0
1.3209457 1.3591408 0.77042961 255 0 0
1.3192797 1.3608847 0.76864558 255 0 0
1.3176136 1.3626287 0.7668615 255 0 0
1.3159475 1.3643726 0.76507747 255 0 0
1.3142815 1.3661165 0.76329339 255 0 0
1.3126154 1.3678606 0.7615093 255 0 0
1.3109493 1.3696045 0.75972527 255 0 0
1.3092833 1.3713484 0.75794119 255 0 0
1.3076172 1.3730923 0.7561571 255 0 0
1.3059511 1.3748363 0.75437307 255 0 0
1.304285 1.3765802 0.75258899 255 0 0
1.302619 1.3783242 0.7508049 255 0 0
1.3009529 1.3800682 0.74902087 255 0 0
1.2992868 1.3818121 0.74723679 255 0 0
1.2976208 1.383556 0.74545276 255 0 0
1.2959547 1.3852999 0.74366868 255 0 0
1.2942885 1.387044 0.74188459 255 0 0
1.2926224 1.3887879 0.74010056 255 0 0
1.2909564 1.3905318 0.73831648 255 0 0
1.2892903 1.3922758 0.73653245 255 0 0
1.2876242 1.3940197 0.73474836 255 0 0
1.2859582 1.3957636 0.73296428 255 0 0
1.2842921 1.3975077 0.73118025 255 0 0
1.282626 1.3992516 0.72939616 255 0 0
1.28096 1.4009955 0.72761208 255 0 0
1.2792939 1.4027394 0.72582805 255 0 0
1.2776278 1.4044834 0.72404397 255 0 0
1.2759618 1.4062274 0.72225988 255 0 0
1.2742957 1.4079713 0.72047585 255 0 0
1.2726296 1.4097153 0.71869177 255 0 0
1.2709635 1.4114592 0.71690774 255 0 0
1.2692975 1.4132031 0.71512365 255 0 0
1.2676314 1.414947 0.71333957 255 0 0
1.2659653 1.4166911 0.71155554 255 0 0
1.2642993 1.418435 0.70977145 255 0 0
1.2626332 1.4201789 0.70798743 255 0 0
1.2609671 1.4219229 0.70620334 255 0 0
1.2593011 1.4236668 0.70441926 255 0 0
1.2576349 1.4254107 0.70263523 255 0 0
1.2559688 1.4271548 0.70085114 255 0 0
1.2543027 1.4288987 0.69906706 255 0 0
1.2526367 1.4306426 0.69728303 255 0 0
1.2509706 1.4323865 0.69549894 255 0 0
1.2493045 1.4341305 0.69371492 255 0 0
1.2476385 1.4358745 0.69193083 255 0 0
1.2459724 1.4376184 0.69014674 255 0 0
1.2443063 1.4393624 0.68836272 255 0 0
1.2426403 1.4411063 0.68657863 255 0 0
1.2409742 1.4428502 0.6847946 255 0 0
1.2393081 1.4445941 0.68301052 255 0 0
1.237642 1.4463382 0.68122643 255 0 0
1.235976 1.4480821 0.67944241 255 0 0
1.2343099 1.449826 0.67765832 255 0 0
1.2326438 1.45157 0.67587423 255 0 0
1.2309778 1.4533139 0.67409021 255 0 0
1.2293117 1.4550579 0.67230612 255 0 0
1.2276456 1.4568018 0.67052209 255 0 0
1.2259796 1.4585458 0.66873801 255 0 0
1.2243135 1.4602897 0.66695392 255 0 0
1.2226474 1.4620336 0.66516989 255 0 0
1.2209814 1.4637777 0.66338581 255 0 0
1.2193153 1.4655216 0.66160172 255 0 0
1.2176492 1.4672655 0.6598177 255 0 0
1.2159832 1.4690095 0.65803361 255 0 0
1.214317 1.4707534 0.65624952 255 0 0
1.2126509 1.4724973 0.6544655 255 0 0
1.2109848 1.4742414 0.65268141 255 0 0
1.3759029 1.3037248 0.8314119 255 0 0
1.3742368 1.3054688 0.82962781 255 0 0
1.3725708 1.3072127 0.82784373 255 0 0
1.3709047 1.3089566 0.8260597 255 0 0
1.3692385 1.3107007 0.82427561 255 0 0
1.3675724 1.3124446 0.82249153 255 0 0
1.3659064 1.3141885 0.82070744 255 0 0
1.3642403 1.3159325 0.81892341 255 0 0
1.3625742 1.3176764 0.81713933 255 0 0
1.3609082 1.3194203 0.8153553 255 0 0
1.3592421 1.3211643 0.81357121 255 0 0
1.357576 1.3229083 0.81178713 255 0 0
1.3559099 1.3246522 0.8100031 255 0 0
1.3542439 1.3263961 0.80821902 255 0 0
1.3525778 1.32814 0.80643499 255 0 0
1.3509117 1.3298841 0.8046509 255 0 0
1.3492457 1.331628 0.80286682 255 0 0
1.3475796 1.3333719 0.80108279 255 0 0
1.3459135 1.3351159 0.7992987 255 0 0
1.3442475 1.3368598 0.79751468 255 0 0
1.3425814 1.3386037 0.79573059 255 0 0
1.3409153 1.3403478 0.7939465 255 0 0
1.3392493 1.3420917 0.79216242 255 0 0
1.3375832 1.3438356 0.79037839 255 0 0
1.3359171 1.3455795 0.78859431 255 0 0
1.334251 1.3473235 0.78681028 255 0 0
1.3325849 1.3490674 0.78502619 255 0 0
1.3309188 1.3508114 0.78324211 255 0 0
1.3292527 1.3525553 0.78145808 255 0 0
1.3275867 1.3542993 0.77967399 255 0 0
1.3259206 1.3560432 0.77788997 255 0 0
1.3242545 1.3577871 0.77610588 255 0 0
1.3225884 1.3595312 0.77432179 255 0 0
1.3209224 1.3612751 0.77253777 255 0 0
1.3192563 1.363019 0.77075368 255 0 0
1.3175902 1.364763 0.76896966 255 0 0
1.3159242 1.3665069 0.76718557 255 0 0
1.3142581 1.3682508 0.76540148 255 0 0
1.312592 1.3699948 0.76361746 255 0 0
1.310926 1.3717388 0.76183337 255 0 0
1.3092599 1.3734827 0.76004934 255 0 0
1.3075938 1.3752266 0.75826526 255 0 0
1.3059278 1.3769706 0.75648117 255 0 0
1.3042617 1.3787146 0.75469714 255 0 0
1.3025956 1.3804585 0.75291306 255 0 0
1.3009295 1.3822025 0.75112897 255 0 0
1.2992635 1.3839464 0.74934494 255 0 0
1.2975974 1.3856903 0.74756086 255 0 0
1.2959313 1.3874342 0.74577677 255 0 0
1.2942653 1.3891783 0.74399275 255 0 0
1.2925992 1.3909222 0.74220866 255 0 0
1.2909331 1.3926661 0.74042463 255 0 0
1.2892671 1.3944101 0.73864055 255 0 0
1.287601 1.396154 0.73685646 255 0 0
1.2859349 1.397898 0.73507243 255 0 0
1.2842687 1.399642 0.73328835 255 0 0
1.2826027 1.4013859 0.73150426 255 0 0
1.2809366 1.4031298 0.72972023 255 0 0
1.2792705 1.4048737 0.72793615 255 0 0
1.2776045 1.4066178 0.72615206 255 0 0
1.2759384 1.4083617 0.72436804 255 0 0
1.2742723 1.4101056 0.72258395 255 0 0
1.2726063 1.4118496 0.72079992 255 0 0
1.2709402 1.4135935 0.71901584 255 0 0
1.2692741 1.4153374 0.71723175 255 0 0
1.267608 1.4170814 0.71544772 255 0 0
1.265942 1.4188254 0.71366364 255 0 0
1.2642759 1.4205693 0.71187961 255 0 0
1.2626098 1.4223132 0.71009552 255 0 0
1.2609438 1.4240572 0.70831144 255 0 0
1.2592777 1.4258012 0.70652741 255 0 0
1.2576116 1.4275451 0.70474333 255 0 0
1.2559456 1.429289 0.7029593 255 0 0
1.2542795 1.431033 0.70117521 255 0 0
1.2526134 1.4327769 0.69939113 255 0 0
1.2509474 1.4345208 0.6976071 255 0 0
1.2492813 1.4362649 0.69582301 255 0 0
1.2476152 1.4380088 0.69403893 255 0 0
1.245949 1.4397527 0.6922549 255 0 0
1.244283 1.4414966 0.69047081 255 0 0
1.2426169 1.4432406 0.68868679 255 0 0
1.2409508 1.4449846 0.6869027 255 0 0
1.2392848 1.4467285 0.68511862 255 0 0
1.2376187 1.4484725 0.68333459 255 0 0
1.2359526 1.4502164 0.6815505 255 0 0
1.2342865 1.4519603 0.67976648 255 0 0
1.2326205 1.4537044 0.67798239 255 0 0
1.2309544 1.4554483 0.6761983 255 0 0
1.2292883 1.4571922 0.67441428 255 0 0
1.2276223 1.4589361 0.67263019 255 0 0
1.2259562 1.4606801 0.6708461 255 0 0
1.2242901 1.462424 0.66906208 255 0 0
1.2226241 1.464168 0.66727799 255 0 0
1.220958 1.465912 0.66549391 255 0 0
1.2192919 1.4676559 0.66370988 255 0 0
1.2176259 1.4693998 0.66192579 255 0 0
1.2159598 1.4711438 0.66014171 255 0 0
1.2142937 1.4728878 0.65835768 255 0 0
1.2126276 1.4746317 0.65657359 255 0 0
1.2109616 1.4763757 0.65478951 255 0 0
1.3758795 1.3058591 0.83352 255 0 0
1.3742135 1.3076031 0.83173597 255 0 0
1.3725474 1.309347 0.82995188 255 0 0
1.3708813 1.3110909 0.8281678 255 0 0
1.3692153 1.312835 0.82638371 255 0 0
1.3675492 1.3145789 0.82459968 255 0 0
1.3658831 1.3163228 0.8228156 255 0 0
1.3642169 1.3180668 0.82103151 255 0 0
1.3625509 1.3198107 0.81924748 255 0 0
1.3608848 1.3215547 0.8174634 255 0 0
1.3592187 1.3232986 0.81567931 255 0 0
1.3575526 1.3250426 0.81389529 255 0 0
1.3558866 1.3267865 0.8121112 255 0 0
1.3542205 1.3285304 0.81032711 255 0 0
1.3525544 1.3302743 0.80854309 255 0 0
1.3508884 1.3320184 0.806759 255 0 0
1.3492223 1.3337623 0.80497497 255 0 0
1.3475562 1.3355062 0.80319089 255 0 0
1.3458902 1.3372502 0.8014068 255 0 0
1.3442241 1.3389941 0.79962277 255 0 0
1.342558 1.3407381 0.79783869 255 0 0
1.340892 1.3424821 0.79605466 255 0 0
1.3392259 1.344226 0.79427058 255 0 0
1.3375598 1.3459699 0.79248649 255 0 0
1.3358938 1.3477138 0.79070246 255 0 0
1.3342277 1.3494579 0.78891838 255 0 0
1.3325616 1.3512018 0.78713429 255 0 0
1.3308955 1.3529457 0.78535026 255 0 0
1.3292295 1.3546896 0.78356618 255 0 0
1.3275633 1.3564336 0.78178215 255 0 0
1.3258972 1.3581775 0.77999806 255 0 0
1.3242311 1.3599215 0.77821398 255 0 0
1.3225651 1.3616655 0.77642995 255 0 0
1.320899 1.3634094 0.77464586 255 0 0
1.3192329 1.3651533 0.77286184 255 0 0
1.3175669 1.3668973 0.77107775 255 0 0
1.3159008 1.3686413 0.76929367 255 0 0
1.3142347 1.3703852 0.76750964 255 0 0
1.3125687 1.3721291 0.76572555 255 0 0
1.3109026 1.3738731 0.76394153 255 0 0
1.3092365 1.375617 0.76215744 255 0 0
1.3075705 1.3773609 0.76037335 255 0 0
1.3059044 1.379105 0.75858933 255 0 0
1.3042383 1.3808489 0.75680524 255 0 0
1.3025723 1.3825928 0.75502115 255 0 0
1.3009062 1.3843367 0.75323713 255 0 0
1.2992401 1.3860807 0.75145304 255 0 0
1.297574 1.3878247 0.74966896 255 0 0
1.295908 1.3895686 0.74788493 255 0 0
1.2942419 1.3913126 0.74610084 255 0 0
1.2925758 1.3930565 0.74431682 255 0 0
1.2909098 1.3948004 0.74253273 255 0 0
1.2892437 1.3965445 0.74074864 255 0 0
1.2875776 1.3982884 0.73896462 255 0 0
1.2859116 1.4000323 0.73718053 255 0 0
1.2842455 1.4017762 0.7353965 255 0 0
1.2825794 1.4035202 0.73361242 255 0 0
1.2809132 1.4052641 0.73182833 255 0 0
1.2792472 1.4070081 0.73004425 255 0 0
1.2775811 1.4087521 0.72826022 255 0 0
1.275915 1.410496 0.72647613 255 0 0
1.274249 1.4122399 0.72469211 255 0 0
1.2725829 1.4139839 0.72290802 255 0 0
1.2709168 1.4157279 0.72112393 255 0 0
1.2692508 1.4174718 0.71933991 255 0 0
1.2675847 1.4192157 0.71755582 255 0 0
1.2659186 1.4209597 0.71577179 255 0 0
1.2642525 1.4227036 0.71398771 255 0 0
1.2625865 1.4244475 0.71220362 255 0 0
1.2609204 1.4261916 0.7104196 255 0 0
1.2592543 1.4279355 0.70863551 255 0 0
1.2575883 1.4296794 0.70685148 255 0 0
1.2559222 1.4314233 0.7050674 255 0 0
1.2542561 1.4331673 0.70328331 255 0 0
1.2525901 1.4349113 0.70149928 255 0 0
1.250924 1.4366552 0.6997152 255 0 0
1.2492579 1.4383992 0.69793111 255 0 0
1.2475919 1.4401431 0.69614708 255 0 0
1.2459258 1.441887 0.694363 255 0 0
1.2442597 1.4436309 0.69257897 255 0 0
1.2425936 1.445375 0.69079489 255 0 0
1.2409275 1.4471189 0.6890108 255 0 0
1.2392614 1.4488628 0.68722677 255 0 0
1.2375953 1.4506068 0.68544269 255 0 0
1.2359293 1.4523507 0.68365866 255 0 0
1.2342632 1.4540946 0.68187457 255 0 0
1.2325971 1.4558387 0.68009049 255 0 0
1.230931 1.4575826 0.67830646 255 0 0
1.229265 1.4593265 0.67652237 255 0 0
1.2275989 1.4610704 0.67473829 255 0 0
1.2259328 1.4628145 0.67295426 255 0 0
1.2242668 1.4645584 0.67117018 255 0 0
1.2226007 1.4663023 0.66938615 255 0 0
1.2209346 1.4680463 0.66760206 255 0 0
1.2192686 1.4697902 0.66581798 255 0 0
1.2176025 1.4715341 0.66403395 255 0 0
1.2159364 1.4732782 0.66224986 255 0 0
1.2142704 1.4750221 0.66046578 255 0 0
1.2126043 1.476766 0.65868169 255 0 0
1.2109382 1.47851 0.65689766 255 0 0
1.3758562 1.3079934 0.83562815 255 0 0
1.3741901 1.3097373 0.83384407 255 0 0
1.372524 1.3114814 0.83205998 255 0 0
1.370858 1.3132253 0.83027589 255 0 0
1.3691919 1.3149692 0.82849187 255 0 0
1.3675258 1.3167132 0.82670778 255 0 0
1.3658597 1.3184571 0.82492369 255 0 0
1.3641937 1.320201 0.82313967 255 0 0
1.3625276 1.3219451 0.82135558 255 0 0
1.3608615 1.323689 0.8195715 255 0 0
1.3591955 1.3254329 0.81778747 255 0 0
1.3575293 1.3271768 0.81600338 255 0 0
1.3558632 1.3289208 0.81421936 255 0 0
1.3541971 1.3306648 0.81243527 255 0 0
1.3525311 1.3324087 0.81065118 255 0 0
1.350865 1.3341527 0.80886716 255 0 0
1.3491989 1.3358966 0.80708307 255 0 0
1.3475329 1.3376405 0.80529904 255 0 0
1.3458668 1.3393846 0.80351496 255 0 0
1.3442007 1.3411285 0.80173087 255 0 0
1.3425347 1.3428724 0.79994684 255 0 0
1.3408686 1.3446163 0.79816276 255 0 0
1.3392025 1.3463603 0.79637867 255 0 0
1.3375365 1.3481042 0.79459465 255 0 0
1.3358704 1.3498482 0.79281056 255 0 0
1.3342043 1.3515922 0.79102653 255 0 0
1.3325382 1.3533361 0.78924245 255 0 0
1.3308722 1.35508 0.78745836 255 0 0
1.3292061 1.3568239 0.78567433 255 0 0
1.32754 1.358568 0.78389025 255 0 0
1.325874 1.3603119 0.78210616 255 0 0
1.3242079 1.3620558 0.78032213 255 0 0
1.3225418 1.3637998 0.77853805 255 0 0
1.3208758 1.3655437 0.77675402 255 0 0
1.3192097 1.3672876 0.77496994 255 0 0
1.3175436 1.3690317 0.77318585 255 0 0
1.3158774 1.3707756 0.77140182 255 0 0
1.3142114 1.3725195 0.76961774 255 0 0
1.3125453 1.3742634 0.76783371 255 0 0
1.3108792 1.3760074 0.76604962 255 0 0
1.3092132 1.3777514 0.76426554 255 0 0
1.3075471 1.3794953 0.76248151 255 0 0
1.305881 1.3812393 0.76069742 255 0 0
1.304215 1.3829832 0.7589134 255 0 0
1.3025489 1.3847271 0.75712931 255 0 0
1.3008828 1.386471 0.75534523 255 0 0
1.2992167 1.3882151 0.7535612 255 0 0
1.2975507 1.389959 0.75177711 255 0 0
1.2958846 1.3917029 0.74999303 255 0 0
1.2942185 1.3934469 0.748209 255 0 0
1.2925525 1.3951908 0.74642491 255 0 0
1.2908864 1.3969347 0.74464083 255 0 0
1.2892203 1.3986788 0.7428568 255 0 0
1.2875543 1.4004227 0.74107271 255 0 0
1.2858882 1.4021666 0.73928869 255 0 0
1.2842221 1.4039105 0.7375046 255 0 0
1.2825561 1.4056545 0.73572052 255 0 0
1.28089 1.4073985 0.73393649 255 0 0
1.2792239 1.4091424 0.7321524 255 0 0
1.2775578 1.4108864 0.73036832 255 0 0
1.2758918 1.4126303 0.72858429 255 0 0
1.2742257 1.4143742 0.7268002 255 0 0
1.2725596 1.4161181 0.72501612 255 0 0
1.2708936 1.4178622 0.72323209 255 0 0
1.2692274 1.4196061 0.721448 255 0 0
1.2675613 1.42135 0.71966398 255 0 0
1.2658952 1.423094 0.71787989 255 0 0
1.2642292 1.4248379 0.71609581 255 0 0
1.2625631 1.4265819 0.71431178 255 0 0
1.260897 1.4283259 0.71252769 255 0 0
1.259231 1.4300698 0.71074367 255 0 0
1.2575649 1.4318137 0.70895958 255 0 0
1.2558988 1.4335576 0.70717549 255 0 0
1.2542328 1.4353017 0.70539147 255 0 0
1.2525667 1.4370456 0.70360738 255 0 0
1.2509006 1.4387895 0.70182335 255 0 0
1.2492346 1.4405335 0.70003927 255 0 0
1.2475685 1.4422774 0.69825518 255 0 0
1.2459024 1.4440213 0.69647115 255 0 0
1.2442364 1.4457653 0.69468707 255 0 0
1.2425703 1.4475093 0.69290298 255 0 0
1.2409042 1.4492532 0.69111896 255 0 0
1.2392381 1.4509971 0.68933487 255 0 0
1.2375721 1.4527411 0.68755084 255 0 0
1.235906 1.4544851 0.68576676 255 0 0
1.2342399 1.456229 0.68398267 255 0 0
1.2325739 1.4579729 0.68219864 255 0 0
1.2309078 1.4597169 0.68041456 255 0 0
1.2292416 1.4614608 0.67863053 255 0 0
1.2275755 1.4632047 0.67684644 255 0 0
1.2259095 1.4649488 0.67506236 255 0 0
1.2242434 1.4666927 0.67327833 255 0 0
1.2225773 1.4684366 0.67149425 255 0 0
1.2209113 1.4701806 0.66971016 255 0 0
1.2192452 1.4719245 0.66792613 255 0 0
1.2175791 1.4736685 0.66614205 255 0 0
1.2159131 1.4754125 0.66435796 255 0 0
1.214247 1.4771564 0.66257393 255 0 0
1.2125809 1.4789003 0.66078985 255 0 0
1.2109149 1.4806442 0.65900576 255 0 0
1.3758328 1.3101277 0.83773625 255 0 0
1.3741667 1.3118716 0.83595216 255 0 0
1.3725007 1.3136157 0.83416808 255 0 0
1.3708346 1.3153596 0.83238405 255 0 0
1.3691685 1.3171035 0.83059996 255 0 0
1.3675025 1.3188475 0.82881594 255 0 0
1.3658364 1.3205914 0.82703185 255 0 0
1.3641703 1.3223354 0.82524776 255 0 0
1.3625042 1.3240794 0.82346368 255 0 0
1.3608382 1.3258233 0.82167965 255 0 0
1.3591721 1.3275672 0.81989557 255 0 0
1.357506 1.3293111 0.81811154 255 0 0
1.35584 1.3310552 0.81632745 255 0 0
1.3541739 1.3327991 0.81454337 255 0 0
1.3525078 1.334543 0.81275934 255 0 0
1.3508418 1.336287 0.81097525 255 0 0
1.3491756 1.3380309 0.80919123 255 0 0
1.3475095 1.3397748 0.80740714 255 0 0
1.3458434 1.3415189 0.80562305 255 0 0
1.3441774 1.3432628 0.80383903 255 0 0
1.3425113 1.3450067 0.80205494 255 0 0
1.3408452 1.3467506 0.80027092 255 0 0
1.3391792 1.3484946 0.79848683 255 0 0
1.3375131 1.3502386 0.79670274 255 0 0
1.335847 1.3519825 0.79491872 255 0 0
1.334181 1.3537265 0.79313463 255 0 0
1.3325149 1.3554704 0.79135054 255 0 0
1.3308488 1.3572143 0.78956652 255 0 0
1.3291827 1.3589582 0.78778243 255 0 0
1.3275167 1.3607023 0.78599834 255 0 0
1.3258506 1.3624462 0.78421432 255 0 0
1.3241845 1.3641901 0.78243023 255 0 0
1.3225185 1.3659341 0.7806462 255 0 0
1.3208524 1.367678 0.77886212 255 0 0
1.3191863 1.369422 0.77707803 255 0 0
1.3175203 1.371166 0.77529401 255 0 0
1.3158542 1.3729099 0.77350992 255 0 0
1.3141881 1.3746538 0.77172589 255 0 0
1.3125221 1.3763977 0.76994181 255 0 0
1.310856 1.3781418 0.76815772 255 0 0
1.3091898 1.3798857 0.76637369 255 0 0
1.3075237 1.3816296 0.76458961 255 0 0
1.3058577 1.3833735 0.76280558 255 0 0
1.3041916 1.3851175 0.76102149 255 0 0
1.3025255 1.3868614 0.75923741 255 0 0
1.3008595 1.3886054 0.75745338 255 0 0
1.2991934 1.3903494 0.7556693 255 0 0
1.2975273 1.3920933 0.75388521 255 0 0
1.2958612 1.3938372 0.75210118 255 0 0
1.2941952 1.3955812 0.7503171 255 0 0
1.2925291 1.3973252 0.74853301 255 0 0
1.290863 1.3990691 0.74674898 255 0 0
1.289197 1.4008131 0.7449649 255 0 0
1.2875309 1.402557 0.74318087 255 0 0
1.2858648 1.4043009 0.74139678 255 0 0
1.2841988 1.4060448 0.7396127 255 0 0
1.2825327 1.4077889 0.73782867 255 0 0
1.2808666 1.4095328 0.73604459 255 0 0
1.2792006 1.4112767 0.7342605 255 0 0
1.2775345 1.4130207 0.73247647 255 0 0
1.2758684 1.4147646 0.73069239 255 0 0
1.2742023 1.4165086 0.7289083 255 0 0
1.2725363 1.4182525 0.72712427 255 0 0
1.2708702 1.4199965 0.72534019 255 0 0
1.2692041 1.4217404 0.72355616 255 0 0
1.2675381 1.4234843 0.72177207 255 0 0
1.265872 1.4252284 0.71998799 255 0 0
1.2642058 1.4269723 0.71820396 255 0 0
1.2625397 1.4287162 0.71641988 255 0 0
1.2608737 1.4304602 0.71463585 255 0 0
1.2592076 1.4322041 0.71285176 255 0 0
1.2575415 1.433948 0.71106768 255 0 0
1.2558755 1.435692 0.70928365 255 0 0
1.2542094 1.437436 0.70749956 255 0 0
1.2525433 1.4391799 0.70571554 255 0 0
1.2508773 1.4409238 0.70393145 255 0 0
1.2492112 1.4426678 0.70214736 255 0 0
1.2475451 1.4444118 0.70036334 255 0 0
1.2458791 1.4461557 0.69857925 255 0 0
1.244213 1.4478996 0.69679523 255 0 0
1.2425469 1.4496436 0.69501114 255 0 0
1.2408808 1.4513875 0.69322705 255 0 0
1.2392148 1.4531314 0.69144303 255 0 0
1.2375487 1.4548755 0.68965894 255 0 0
1.2358826 1.4566194 0.68787485 255 0 0
1.2342166 1.4583633 0.68609083 255 0 0
1.2325505 1.4601072 0.68430674 255 0 0
1.2308844 1.4618512 0.68252271 255 0 0
1.2292184 1.4635952 0.68073863 255 0 0
1.2275523 1.4653391 0.67895454 255 0 0
1.2258862 1.4670831 0.67717052 255 0 0
1.2242202 1.468827 0.67538643 255 0 0
1.222554 1.4705709 0.67360234 255 0 0
1.2208879 1.472315 0.67181832 255 0 0
1.2192218 1.4740589 0.67003423 255 0 0
1.2175558 1.4758028 0.66825014 255 0 0
1.2158897 1.4775467 0.66646612 255 0 0
1.2142236 1.4792907 0.66468203 255 0 0
1.2125576 1.4810346 0.66289794 255 0 0
1.2108915 1.4827785 0.66111392 255 0 0
1.3758094 1.3122621 0.83984435 255 0 0
1.3741434 1.314006 0.83806032 255 0 0
1.3724773 1.31575 0.83627623 255 0 0
1.3708112 1.3174939 0.83449215 255 0 0
1.3691452 1.3192378 0.83270812 255 0 0
1.3674791 1.3209819 0.83092403 255 0 0
1.365813 1.3227258 0.82913995 255 0 0
1.3641469 1.3244697 0.82735586 255 0 0
1.3624809 1.3262137 0.82557184 255 0 0
1.3608148 1.3279576 0.82378775 255 0 0
1.3591487 1.3297015 0.82200372 255 0 0
1.3574827 1.3314455 0.82021964 255 0 0
1.3558166 1.3331895 0.81843555 255 0 0
1.3541505 1.3349334 0.81665152 255 0 0
1.3524845 1.3366773 0.81486744 255 0 0
1.3508184 1.3384213 0.81308341 255 0 0
1.3491523 1.3401653 0.81129932 255 0 0
1.3474863 1.3419092 0.80951524 255 0 0
1.3458202 1.3436532 0.80773121 255 0 0
1.3441541 1.3453971 0.80594712 255 0 0
1.3424881 1.347141 0.8041631 255 0 0
1.3408219 1.3488849 0.80237901 255 0 0
1.3391558 1.350629 0.80059493 255 0 0
1.3374897 1.3523729 0.7988109 255 0 0
1.3358237 1.3541168 0.79702681 255 0 0
1.3341576 1.3558607 0.79524279 255 0 0
1.3324915 1.3576047 0.7934587 255 0 0
1.3308254 1.3593487 0.79167461 255 0 0
1.3291594 1.3610926 0.78989059 255 0 0
1.3274933 1.3628366 0.7881065 255 0 0
1.3258272 1.3645805 0.78632241 255 0 0
1.3241612 1.3663244 0.78453839 255 0 0
1.3224951 1.3680685 0.7827543 255 0 0
1.320829 1.3698124 0.78097028 255 0 0
1.319163 1.3715563 0.77918619 255 0 0
1.3174969 1.3733002 0.7774021 255 0 0
1.3158308 1.3750442 0.77561808 255 0 0
1.3141648 1.3767881 0.77383399 255 0 0
1.3124987 1.3785321 0.7720499 255 0 0
1.3108326 1.3802761 0.77026588 255 0 0
1.3091666 1.38202 0.76848179 255 0 0
1.3075005 1.3837639 0.76669776 255 0 0
1.3058344 1.3855078 0.76491368 255 0 0
1.3041683 1.3872519 0.76312959 255 0 0
1.3025023 1.3889958 0.76134557 255 0 0
1.3008362 1.3907397 0.75956148 255 0 0
1.29917 1.3924837 0.75777745 255 0 0
1.2975039 1.3942276 0.75599337 255 0 0
1.2958379 1.3959715 0.75420928 255 0 0
1.2941718 1.3977156 0.75242525 255 0 0
1.2925057 1.3994595 0.75064117 255 0 0
1.2908397 1.4012034 0.74885708 255 0 0
1.2891736 1.4029474 0.74707305 255 0 0
1.2875075 1.4046913 0.74528897 255 0 0
1.2858415 1.4064353 0.74350488 255 0 0
1.2841754 1.4081792 0.74172086 255 0 0
1.2825093 1.4099232 0.73993677 255 0 0
1.2808433 1.4116671 0.73815274 255 0 0
1.2791772 1.413411 0.73636866 255 0 0
1.2775111 1.4151551 0.73458457 255 0 0
1.2758451 1.416899 0.73280054 255 0 0
1.274179 1.4186429 0.73101646 255 0 0
1.2725129 1.4203868 0.72923237 255 0 0
1.2708468 1.4221308 0.72744834 255 0 0
1.2691808 1.4238747 0.72566426 255 0 0
1.2675147 1.4256186 0.72388023 255 0 0
1.2658486 1.4273627 0.72209615 255 0 0
1.2641826 1.4291066 0.72031206 255 0 0
1.2625165 1.4308505 0.71852803 255 0 0
1.2608504 1.4325944 0.71674395 255 0 0
1.2591844 1.4343385 0.71495986 255 0 0
1.2575183 1.4360824 0.71317583 255 0 0
1.2558522 1.4378263 0.71139175 255 0 0
1.2541862 1.4395703 0.70960772 255 0 0
1.25252 1.4413142 0.70782363 255 0 0
1.2508539 1.4430581 0.70603955 255 0 0
1.2491878 1.444802 0.70425552 255 0 0
1.2475218 1.4465461 0.70247144 255 0 0
1.2458557 1.44829 0.70068741 255 0 0
1.2441896 1.4500339 0.69890332 255 0 0
1.2425236 1.4517779 0.69711924 255 0 0
1.2408575 1.4535218 0.69533521 255 0 0
1.2391914 1.4552658 0.69355112 255 0 0
1.2375253 1.4570098 0.6917671 255 0 0
1.2358593 1.4587537 0.68998301 255 0 0
1.2341932 1.4604976 0.68819892 255 0 0
1.2325271 1.4622415 0.6864149 255 0 0
1.2308611 1.4639856 0.68463081 255 0 0
1.229195 1.4657295 0.68284672 255 0 0
1.2275289 1.4674734 0.6810627 255 0 0
1.2258629 1.4692174 0.67927861 255 0 0
1.2241968 1.4709613 0.67749459 255 0 0
1.2225307 1.4727052 0.6757105 255 0 0
1.2208647 1.4744492 0.67392641 255 0 0
1.2191986 1.4761932 0.67214239 255 0 0
1.2175324 1.4779371 0.6703583 255 0 0
1.2158663 1.479681 0.66857421 255 0 0
1.2142003 1.481425 0.66679013 255 0 0
1.2125342 1.483169 0.6650061 255 0 0
1.2108681 1.4849129 0.66322201 255 0 0
1.3757862 1.3143964 0.8419525 255 0 0
1.3741201 1.3161403 0.84016842 255 0 0
1.3724539 1.3178843 0.83838439 255 0 0
1.3707879 1.3196282 0.8366003 255 0 0
1.3691218 1.3213722 0.83481622 255 0 0
1.3674557 1.3231162 0.83303213 255 0 0
1.3657897 1.3248601 0.8312481 255 0 0
1.3641236 1.326604 0.82946402 255 0 0
1.3624575 1.328348 0.82767999 255 0 0
1.3607914 1.330092 0.82589591 255 0 0
1.3591254 1.3318359 0.82411182 255 0 0
1.3574593 1.3335798 0.82232773 255 0 0
1.3557932 1.3353238 0.82054371 255 0 0
1.3541272 1.3370677 0.81875962 255 0 0
1.3524611 1.3388116 0.81697559 255 0 0
1.350795 1.3405557 0.81519151 255 0 0
1.349129 1.3422996 0.81340742 255 0 0
1.3474629 1.3440435 0.81162339 255 0 0
1.3457968 1.3457875 0.80983931 255 0 0
1.3441308 1.3475314 0.80805528 255 0 0
1.3424647 1.3492754 0.8062712 255 0 0
1.3407986 1.3510193 0.80448711 255 0 0
1.3391325 1.3527633 0.80270308 255 0 0
1.3374665 1.3545072 0.800919 255 0 0
1.3358004 1.3562511 0.79913497 255 0 0
1.3341343 1.357995 0.79735088 255 0 0
1.3324682 1.3597391 0.7955668 255 0 0
1.3308021 1.361483 0.79378277 255 0 0
1.329136 1.3632269 0.79199868 255 0 0
1.3274699 1.3649709 0.7902146 255 0 0
1.3258039 1.3667148 0.78843057 255 0 0
1.3241378 1.3684587 0.78664649 255 0 0
1.3224717 1.3702028 0.78486246 255 0 0
1.3208057 1.3719467 0.78307837 255 0 0
1.3191396 1.3736906 0.78129429 255 0 0
1.3174735 1.3754345 0.77951026 255 0 0
1.3158075 1.3771785 0.77772617 255 0 0
1.3141414 1.3789225 0.77594209 255 0 0
1.3124753 1.3806664 0.77415806 255 0 0
1.3108093 1.3824104 0.77237397 255 0 0
1.3091432 1.3841543 0.77058995 255 0 0
1.3074771 1.3858982 0.76880586 255 0 0
1.305811 1.3876421 0.76702178 255 0 0
1.304145 1.3893862 0.76523775 255 0 0
1.3024789 1.3911301 0.76345366 255 0 0
1.3008128 1.392874 0.76166964 255 0 0
1.2991468 1.394618 0.75988555 255 0 0
1.2974807 1.3963619 0.75810146 255 0 0
1.2958146 1.3981059 0.75631744 255 0 0
1.2941484 1.3998499 0.75453335 255 0 0
1.2924824 1.4015938 0.75274926 255 0 0
1.2908163 1.4033377 0.75096524 255 0 0
1.2891502 1.4050817 0.74918115 255 0 0
1.2874842 1.4068257 0.74739712 255 0 0
1.2858181 1.4085696 0.74561304 255 0 0
1.284152 1.4103135 0.74382895 255 0 0
1.282486 1.4120575 0.74204493 255 0 0
1.2808199 1.4138014 0.74026084 255 0 0
1.2791538 1.4155453 0.73847675 255 0 0
1.2774878 1.4172894 0.73669273 255 0 0
1.2758217 1.4190333 0.73490864 255 0 0
1.2741556 1.4207772 0.73312455 255 0 0
1.2724895 1.4225211 0.73134053 255 0 0
1.2708235 1.4242651 0.72955644 255 0 0
1.2691574 1.4260091 0.72777241 255 0 0
1.2674913 1.427753 0.72598833 255 0 0
1.2658253 1.429497 0.72420424 255 0 0
1.2641592 1.4312409 0.72242022 255 0 0
1.2624931 1.4329848 0.72063613 255 0 0
1.2608271 1.4347287 0.7188521 255 0 0
1.259161 1.4364728 0.71706802 255 0 0
1.2574949 1.4382167 0.71528393 255 0 0
1.2558289 1.4399606 0.7134999 255 0 0
1.2541628 1.4417046 0.71171582 255 0 0
1.2524967 1.4434485 0.70993173 255 0 0
1.2508307 1.4451925 0.7081477 255 0 0
1.2491646 1.4469364 0.70636362 255 0 0
1.2474985 1.4486804 0.70457959 255 0 0
1.2458323 1.4504243 0.70279551 255 0 0
1.2441663 1.4521682 0.70101142 255 0 0
1.2425002 1.4539123 0.69922739 255 0 0
1.2408341 1.4556562 0.69744331 255 0 0
1.239168 1.4574001 0.69565928 255 0 0
1.237502 1.4591441 0.69387519 255 0 0
1.2358359 1.460888 0.69209111 255 0 0
1.2341698 1.4626319 0.69030708 255 0 0
1.2325038 1.4643759 0.68852299 255 0 0
1.2308377 1.4661199 0.68673897 255 0 0
1.2291716 1.4678638 0.68495488 255 0 0
1.2275056 1.4696077 0.6831708 255 0 0
1.2258395 1.4713517 0.68138677 255 0 0
1.2241734 1.4730957 0.67960268 255 0 0
1.2225074 1.4748396 0.6778186 255 0 0
1.2208413 1.4765835 0.67603457 255 0 0
1.2191752 1.4783275 0.67425048 255 0 0
1.2175092 1.4800714 0.6724664 255 0 0
1.2158431 1.4818153 0.67068237 255 0 0
1.2141769 1.4835594 0.66889828 255 0 0
1.2125108 1.4853033 0.6671142 255 0 0
1.2108448 1.4870472 0.66533017 255 0 0
1.3757628 1.3165307 0.84406066 255 0 0
1.3740968 1.3182746 0.84227657 255 0 0
1.3724307 1.3200186 0.84049249 255 0 0
1.3707646 1.3217626 0.8387084 255 0 0
1.3690985 1.3235065 0.83692437 255 0 0
1.3674324 1.3252505 0.83514029 255 0 0
1.3657663 1.3269944 0.8333562 255 0 0
1.3641002 1.3287383 0.83157218 255 0 0
1.3624341 1.3304824 0.82978809 255 0 0
1.3607681 1.3322263 0.828004 255 0 0
1.359102 1.3339702 0.82621998 255 0 0
1.3574359 1.3357141 0.82443589 255 0 0
1.3557699 1.3374581 0.82265186 255 0 0
1.3541038 1.339202 0.82086778 255 0 0
1.3524377 1.340946 0.81908369 255 0 0
1.3507717 1.34269 0.8172996 255 0 0
1.3491056 1.3444339 0.81551558 255 0 0
1.3474395 1.3461778 0.81373149 255 0 0
1.3457735 1.3479218 0.81194746 255 0 0
1.3441074 1.3496658 0.81016338 255 0 0
1.3424413 1.3514097 0.80837929 255 0 0
1.3407753 1.3531536 0.80659527 255 0 0
1.3391092 1.3548976 0.80481118 255 0 0
1.3374431 1.3566415 0.80302715 255 0 0
1.335777 1.3583854 0.80124307 255 0 0
1.334111 1.3601294 0.79945898 255 0 0
1.3324449 1.3618734 0.79767495 255 0 0
1.3307788 1.3636173 0.79589087 255 0 0
1.3291128 1.3653612 0.79410684 255 0 0
1.3274467 1.3671052 0.79232275 255 0 0
1.3257806 1.3688492 0.79053867 255 0 0
1.3241146 1.3705931 0.78875464 255 0 0
1.3224485 1.3723371 0.78697056 255 0 0
1.3207823 1.374081 0.78518653 255 0 0
1.3191162 1.3758249 0.78340244 255 0 0
1.3174502 1.3775688 0.78161836 255 0 0
1.3157841 1.3793129 0.77983433 255 0 0
1.314118 1.3810568 0.77805024 255 0 0
1.312452 1.3828007 0.77626616 255 0 0
1.3107859 1.3845447 0.77448213 255 0 0
1.3091198 1.3862886 0.77269804 255 0 0
1.3074538 1.3880326 0.77091396 255 0 0
1.3057877 1.3897765 0.76912993 255 0 0
1.3041216 1.3915205 0.76734585 255 0 0
1.3024555 1.3932644 0.76556182 255 0 0
1.3007895 1.3950083 0.76377773 255 0 0
1.2991234 1.3967524 0.76199365 255 0 0
1.2974573 1.3984963 0.76020962 255 0 0
1.2957913 1.4002402 0.75842553 255 0 0
1.2941252 1.4019842 0.75664151 255 0 0
1.2924591 1.4037281 0.75485742 255 0 0
1.2907931 1.405472 0.75307333 255 0 0
1.289127 1.407216 0.75128931 255 0 0
1.2874609 1.40896 0.74950522 255 0 0
1.2857949 1.4107039 0.74772114 255 0 0
1.2841287 1.4124478 0.74593711 255 0 0
1.2824626 1.4141918 0.74415302 255 0 0
1.2807965 1.4159358 0.74236894 255 0 0
1.2791305 1.4176797 0.74058491 255 0 0
1.2774644 1.4194236 0.73880082 255 0 0
1.2757983 1.4211676 0.7370168 255 0 0
1.2741323 1.4229115 0.73523271 255 0 0
1.2724662 1.4246554 0.73344862 255 0 0
1.2708001 1.4263995 0.7316646 255 0 0
1.269134 1.4281434 0.72988051 255 0 0
1.267468 1.4298873 0.72809643 255 0 0
1.2658019 1.4316313 0.7263124 255 0 0
1.2641358 1.4333752 0.72452831 255 0 0
1.2624698 1.4351192 0.72274429 255 0 0
1.2608037 1.4368631 0.7209602 255 0 0
1.2591376 1.4386071 0.71917611 255 0 0
1.2574716 1.440351 0.71739209 255 0 0
1.2558055 1.4420949 0.715608 255 0 0
1.2541394 1.443839 0.71382397 255 0 0
1.2524734 1.4455829 0.71203989 255 0 0
1.2508073 1.4473268 0.7102558 255 0 0
1.2491412 1.4490707 0.70847178 255 0 0
1.2474751 1.4508147 0.70668769 255 0 0
1.2458091 1.4525586 0.7049036 255 0 0
1.244143 1.4543025 0.70311958 255 0 0
1.2424769 1.4560466 0.70133549 255 0 0
1.2408109 1.4577905 0.69955146 255 0 0
1.2391448 1.4595344 0.69776738 255 0 0
1.2374787 1.4612783 0.69598329 255 0 0
1.2358127 1.4630224 0.69419926 255 0 0
1.2341465 1.4647663 0.69241518 255 0 0
1.2324804 1.4665102 0.69063115 255 0 0
1.2308143 1.4682542 0.68884706 255 0 0
1.2291483 1.4699981 0.68706298 255 0 0
1.2274822 1.471742 0.68527895 255 0 0
1.2258161 1.4734859 0.68349487 255 0 0
1.2241501 1.47523 0.68171084 255 0 0
1.222484 1.4769739 0.67992675 255 0 0
1.2208179 1.4787178 0.67814267 255 0 0
1.2191519 1.4804618 0.67635858 255 0 0
1.2174858 1.4822057 0.67457455 255 0 0
1.2158197 1.4839497 0.67279047 255 0 0
1.2141536 1.4856937 0.67100638 255 0 0
1.2124876 1.4874376 0.66922235 255 0 0
1.2108215 1.4891815 0.66743827 255 0 0
1.3757395 1.318665 0.84616876 255 0 0
1.3740734 1.3204089 0.84438467 255 0 0
1.3724073 1.322153 0.84260058 255 0 0
1.3707412 1.3238969 0.8408165 255 0 0
1.3690752 1.3256408 0.83903247 255 0 0
1.3674091 1.3273847 0.83724838 255 0 0
1.365743 1.3291287 0.83546436 255 0 0
1.364077 1.3308727 0.83368027 255 0 0
1.3624108 1.3326166 0.83189619 255 0 0
1.3607447 1.3343606 0.8301121 255 0 0
1.3590786 1.3361045 0.82832807 255 0 0
1.3574126 1.3378484 0.82654399 255 0 0
1.3557465 1.3395925 0.82475996 255 0 0
1.3540804 1.3413364 0.82297587 255 0 0
1.3524144 1.3430803 0.82119179 255 0 0
1.3507483 1.3448243 0.81940776 255 0 0
1.3490822 1.3465682 0.81762367 255 0 0
1.3474162 1.3483121 0.81583965 255 0 0
1.3457501 1.3500561 0.81405556 255 0 0
1.344084 1.3518001 0.81227154 255 0 0
1.342418 1.353544 0.81048745 255 0 0
1.3407519 1.3552879 0.80870336 255 0 0
1.3390858 1.3570319 0.80691934 255 0 0
1.3374197 1.3587759 0.80513525 255 0 0
1.3357537 1.3605198 0.80335116 255 0 0
1.3340876 1.3622637 0.80156714 255 0 0
1.3324215 1.3640077 0.79978305 255 0 0
1.3307555 1.3657516 0.79799902 255 0 0
1.3290894 1.3674955 0.79621494 255 0 0
1.3274233 1.3692396 0.79443085 255 0 0
1.3257573 1.3709835 0.79264683 255 0 0
1.3240912 1.3727274 0.79086274 255 0 0
1.3224251 1.3744714 0.78907871 255 0 0
1.3207591 1.3762153 0.78729463 255 0 0
1.319093 1.3779593 0.78551054 255 0 0
1.3174269 1.3797032 0.78372651 255 0 0
1.3157607 1.3814472 0.78194243 255 0 0
1.3140947 1.3831911 0.7801584 255 0 0
1.3124286 1.384935 0.77837431 255 0 0
1.3107625 1.3866791 0.77659023 255 0 0
1.3090965 1.388423 0.7748062 255 0 0
1.3074304 1.3901669 0.77302212 255 0 0
1.3057643 1.3919108 0.77123803 255 0 0
1.3040982 1.3936548 0.769454 255 0 0
1.3024322 1.3953987 0.76766992 255 0 0
1.3007661 1.3971426 0.76588583 255 0 0
1.2991 1.3988867 0.7641018 255 0 0
1.297434 1.4006306 0.76231772 255 0 0
1.2957679 1.4023745 0.76053369 255 0 0
1.2941018 1.4041185 0.7587496 255 0 0
1.2924358 1.4058625 0.75696552 255 0 0
1.2907697 1.4076064 0.75518149 255 0 0
1.2891036 1.4093503 0.75339741 255 0 0
1.2874376 1.4110943 0.75161332 255 0 0
1.2857715 1.4128382 0.74982929 255 0 0
1.2841054 1.4145821 0.74804521 255 0 0
1.2824394 1.4163262 0.74626118 255 0 0
1.2807732 1.4180701 0.74447709 255 0 0
1.2791071 1.419814 0.74269301 255 0 0
1.277441 1.4215579 0.74090898 255 0 0
1.275775 1.4233019 0.73912489 255 0 0
1.2741089 1.4250458 0.73734081 255 0 0
1.2724428 1.4267898 0.73555678 255 0 0
1.2707767 1.4285338 0.7337727 255 0 0
1.2691107 1.4302777 0.73198867 255 0 0
1.2674446 1.4320216 0.73020458 255 0 0
1.2657785 1.4337656 0.7284205 255 0 0
1.2641125 1.4355096 0.72663647 255 0 0
1.2624464 1.4372535 0.72485238 255 0 0
1.2607803 1.4389974 0.7230683 255 0 0
1.2591143 1.4407414 0.72128427 255 0 0
1.2574482 1.4424853 0.71950018 255 0 0
1.2557821 1.4442292 0.71771616 255 0 0
1.2541161 1.4459733 0.71593207 255 0 0
1.25245 1.4477172 0.71414798 255 0 0
1.2507839 1.4494611 0.71236396 255 0 0
1.2491179 1.451205 0.71057987 255 0 0
1.2474518 1.452949 0.70879585 255 0 0
1.2457857 1.454693 0.70701176 255 0 0
1.2441196 1.4564369 0.70522767 255 0 0
1.2424536 1.4581809 0.70344365 255 0 0
1.2407875 1.4599248 0.70165956 255 0 0
1.2391214 1.4616687 0.69987547 255 0 0
1.2374554 1.4634126 0.69809145 255 0 0
1.2357893 1.4651567 0.69630736 255 0 0
1.2341232 1.4669006 0.69452333 255 0 0
1.2324572 1.4686445 0.69273925 255 0 0
1.2307911 1.4703885 0.69095516 255 0 0
1.2291249 1.4721324 0.68917114 255 0 0
1.2274588 1.4738764 0.68738705 255 0 0
1.2257928 1.4756203 0.68560302 255 0 0
1.2241267 1.4773643 0.68381894 255 0 0
1.2224606 1.4791082 0.68203485 255 0 0
1.2207946 1.4808521 0.68025082 255 0 0
1.2191285 1.4825962 0.67846674 255 0 0
1.2174624 1.4843401 0.67668265 255 0 0
1.2157964 1.486084 0.67489862 255 0 0
1.2141303 1.487828 0.67311454 255 0 0
1.2124642 1.4895719 0.67133045 255 0 0
1.2107981 1.4913158 0.66954637 255 0 0
1.3757161 1.3207994 0.84827685 255 0 0
