ply
format ascii 1.0
comment PCL generated
element vertex 1223
property float x
property float y
property float z
property uchar red
property uchar green
property uchar blue
element camera 0
property float view_px
property float view_py
property float view_pz
property float x_axisx
property float x_axisy
property float x_axisz
property float y_axisx
property float y_axisy
property float y_axisz
property float z_axisx
property float z_axisy
property float z_axisz
property float focal
property float scalex
property float scaley
property float centerx
property float centery
property int viewportx
property int viewporty
property float k1
property float k2
end_header
1.6484352 1.3891388 0.45827579 0 255 0
1.6523987 1.3903992 0.45550045 0 255 0
1.6563622 1.3916596 0.45272514 0 255 0
1.6603255 1.39292 0.4499498 0 255 0
1.664289 1.3941804 0.44717446 0 255 0
1.6682525 1.3954408 0.44439915 0 255 0
1.6722159 1.3967012 0.44162381 0 255 0
1.6761794 1.3979616 0.43884847 0 255 0
1.6801429 1.399222 0.43607315 0 255 0
1.6841063 1.4004824 0.43329781 0 255 0
1.6880698 1.4017428 0.4305225 0 255 0
1.6920332 1.4030032 0.42774716 0 255 0
1.6959966 1.4042636 0.42497182 0 255 0
1.6999601 1.405524 0.42219651 0 255 0
1.7039236 1.4067844 0.41942117 0 255 0
1.2956749 1.408902 0.37783965 0 255 0
1.2996384 1.4101624 0.37506431 0 255 0
1.3036019 1.4114228 0.372289 0 255 0
1.3075653 1.4126832 0.36951366 0 255 0
1.3115288 1.4139436 0.36673835 0 255 0
1.3154922 1.415204 0.36396301 0 255 0
1.3194556 1.4164644 0.3611877 0 255 0
1.3234191 1.4177248 0.35841236 0 255 0
1.3273826 1.4189852 0.35563701 0 255 0
1.331346 1.4202456 0.3528617 0 255 0
1.3353095 1.421506 0.35008636 0 255 0
1.339273 1.4227664 0.34731102 0 255 0
1.3432364 1.4240268 0.34453571 0 255 0
1.3471999 1.4252872 0.34176037 0 255 0
1.3511634 1.4265478 0.33898503 0 255 0
1.3551269 1.427808 0.33620968 0 255 0
1.3590902 1.4290686 0.33343434 0 255 0
1.3630537 1.4303288 0.33065903 0 255 0
1.3670171 1.4315894 0.32788372 0 255 0
1.3709806 1.4328496 0.32510838 0 255 0
1.3749441 1.4341102 0.32233304 0 255 0
1.3789076 1.4353704 0.31955773 0 255 0
1.3828709 1.4366308 0.31678239 0 255 0
1.3868344 1.4378912 0.31400704 0 255 0
1.3907979 1.4391516 0.31123173 0 255 0
1.3947613 1.440412 0.30845642 0 255 0
1.3987248 1.4416724 0.30568108 0 255 0
1.4026883 1.4429328 0.30290574 0 255 0
1.4066517 1.4441932 0.30013043 0 255 0
1.4106152 1.4454536 0.29735509 0 255 0
1.4145786 1.446714 0.29457974 0 255 0
1.418542 1.4479744 0.29180443 0 255 0
1.4225055 1.4492348 0.28902909 0 255 0
1.426469 1.4504952 0.28625375 0 255 0
1.4304324 1.4517556 0.28347844 0 255 0
1.4343959 1.453016 0.2807031 0 255 0
1.4383594 1.4542764 0.27792776 0 255 0
1.4423227 1.4555368 0.27515244 0 255 0
1.4462862 1.4567972 0.27237713 0 255 0
1.4502497 1.4580576 0.26960179 0 255 0
1.4542131 1.459318 0.26682645 0 255 0
1.4581766 1.4605784 0.26405114 0 255 0
1.4621401 1.4618388 0.2612758 0 255 0
1.4661036 1.4630992 0.25850046 0 255 0
1.470067 1.4643598 0.25572515 0 255 0
1.4740304 1.4656202 0.2529498 0 255 0
1.4779938 1.4668806 0.25017446 0 255 0
1.4819573 1.468141 0.24739914 0 255 0
1.4859208 1.4694014 0.24462381 0 255 0
1.4898843 1.4706618 0.24184848 0 255 0
1.4938477 1.4719222 0.23907314 0 255 0
1.4978112 1.4731826 0.23629782 0 255 0
1.5017747 1.474443 0.23352249 0 255 0
1.5057381 1.4757034 0.23074716 0 255 0
1.5097015 1.4769638 0.22797182 0 255 0
1.513665 1.4782242 0.2251965 0 255 0
1.5176284 1.4794846 0.22242117 0 255 0
1.5215919 1.480745 0.21964584 0 255 0
1.5255554 1.4820054 0.21687052 0 255 0
1.5295188 1.4832658 0.21409519 0 255 0
1.5334822 1.484526 0.21131986 0 255 0
1.4619867 1.3345351 0.59058398 255 0 0
1.458943 1.3359233 0.58686793 255 0 0
1.4558995 1.3373116 0.58315182 255 0 0
1.4528558 1.3386998 0.57943571 255 0 0
1.4498123 1.3400881 0.57571959 255 0 0
1.4467686 1.3414763 0.57200354 255 0 0
1.4437251 1.3428645 0.56828743 255 0 0
1.4406815 1.3442528 0.56457132 255 0 0
1.4376379 1.345641 0.56085521 255 0 0
1.4345943 1.3470293 0.5571391 255 0 0
1.4315507 1.3484175 0.55342305 255 0 0
1.4285071 1.3498058 0.54970694 255 0 0
1.4254634 1.351194 0.54599082 255 0 0
1.4224199 1.3525822 0.54227471 255 0 0
1.4193763 1.3539705 0.53855866 255 0 0
1.4163327 1.3553588 0.53484255 255 0 0
1.4132891 1.356747 0.53112644 255 0 0
1.4102455 1.3581352 0.52741033 255 0 0
1.4072019 1.3595235 0.52369428 255 0 0
1.4041584 1.3609117 0.51997817 255 0 0
1.4011147 1.3623 0.51626205 255 0 0
1.3980712 1.3636882 0.512546 255 0 0
1.3950275 1.3650765 0.50882989 255 0 0
1.391984 1.3664647 0.50511378 255 0 0
1.3889403 1.3678529 0.50139773 255 0 0
1.3858968 1.3692412 0.49768162 255 0 0
1.3828532 1.3706294 0.49396551 255 0 0
1.3798096 1.3720177 0.49024943 255 0 0
1.376766 1.3734059 0.48653331 255 0 0
1.3737224 1.3747942 0.48281723 255 0 0
1.3706788 1.3761824 0.47910112 255 0 0
1.3676353 1.3775706 0.47538504 255 0 0
1.3645916 1.3789589 0.47166893 255 0 0
1.3615479 1.3803471 0.46795285 255 0 0
1.3585044 1.3817354 0.46423674 255 0 0
1.3554608 1.3831236 0.46052065 255 0 0
1.3524172 1.3845119 0.45680457 255 0 0
1.3493736 1.3859001 0.45308846 255 0 0
1.34633 1.3872885 0.44937238 255 0 0
1.3432864 1.3886766 0.44565627 255 0 0
1.3402429 1.390065 0.44194019 255 0 0
1.3371992 1.3914531 0.43822408 255 0 0
1.3341557 1.3928413 0.434508 255 0 0
1.331112 1.3942297 0.43079188 255 0 0
1.3280685 1.3956178 0.4270758 255 0 0
1.3250248 1.3970062 0.42335969 255 0 0
1.3219812 1.3983943 0.41964361 255 0 0
1.3189377 1.3997827 0.4159275 255 0 0
1.3158941 1.4011708 0.41221142 255 0 0
1.3128505 1.402559 0.40849531 255 0 0
1.3098068 1.4039474 0.40477923 255 0 0
1.3067633 1.4053355 0.40106311 255 0 0
1.3037196 1.4067239 0.39734703 255 0 0
1.3006761 1.408112 0.39363092 255 0 0
1.2976325 1.4095004 0.38991484 255 0 0
1.2945889 1.4108886 0.38619873 255 0 0
1.7037574 1.4114195 0.42128885 255 0 0
1.7007138 1.4128077 0.41757277 255 0 0
1.6976702 1.414196 0.41385669 255 0 0
1.6946266 1.4155842 0.41014057 255 0 0
1.691583 1.4169725 0.40642449 255 0 0
1.6885394 1.4183607 0.40270838 255 0 0
1.6854959 1.419749 0.3989923 255 0 0
1.6824522 1.4211372 0.39527619 255 0 0
1.6794087 1.4225254 0.39156011 255 0 0
1.676365 1.4239137 0.387844 255 0 0
1.6733215 1.4253019 0.38412791 255 0 0
1.6702778 1.4266902 0.3804118 255 0 0
1.6672342 1.4280784 0.37669569 255 0 0
1.6641906 1.4294667 0.37297961 255 0 0
1.6611471 1.4308549 0.36926353 255 0 0
1.6581035 1.4322431 0.36554742 255 0 0
1.6550598 1.4336314 0.36183131 255 0 0
1.6520163 1.4350196 0.35811523 255 0 0
1.6489726 1.4364079 0.35439914 255 0 0
1.6459291 1.4377961 0.35068303 255 0 0
1.6428854 1.4391844 0.34696695 255 0 0
1.6398419 1.4405726 0.34325084 255 0 0
1.6367983 1.4419609 0.33953476 255 0 0
1.6337547 1.4433491 0.33581865 255 0 0
1.6307111 1.4447374 0.33210257 255 0 0
1.6276675 1.4461256 0.32838649 255 0 0
1.6246239 1.4475138 0.32467037 255 0 0
1.6215804 1.4489021 0.32095426 255 0 0
1.6185367 1.4502903 0.31723818 255 0 0
1.6154932 1.4516786 0.3135221 255 0 0
1.6124495 1.4530668 0.30980599 255 0 0
1.609406 1.4544551 0.30608991 255 0 0
1.6063623 1.4558433 0.30237383 255 0 0
1.6033188 1.4572315 0.29865772 255 0 0
1.6002752 1.4586198 0.2949416 255 0 0
1.5972316 1.460008 0.29122552 255 0 0
1.594188 1.4613963 0.28750944 255 0 0
1.5911443 1.4627845 0.28379333 255 0 0
1.5881008 1.4641728 0.28007725 255 0 0
1.5850573 1.465561 0.27636117 255 0 0
1.5820136 1.4669493 0.27264506 255 0 0
1.57897 1.4683375 0.26892895 255 0 0
1.5759264 1.4697257 0.26521286 255 0 0
1.5728828 1.471114 0.26149678 255 0 0
1.5698392 1.4725022 0.25778067 255 0 0
1.5667956 1.4738905 0.25406456 255 0 0
1.5637521 1.4752787 0.25034848 255 0 0
1.5607084 1.476667 0.24663238 255 0 0
1.5576649 1.4780552 0.24291629 255 0 0
1.5546212 1.4794436 0.23920019 255 0 0
1.5515777 1.4808317 0.23548409 255 0 0
1.548534 1.4822199 0.231768 255 0 0
1.5454904 1.4836082 0.2280519 255 0 0
1.5424469 1.4849964 0.2243358 255 0 0
1.5394032 1.4863847 0.22061971 255 0 0
1.5363597 1.4877729 0.21690361 255 0 0
1.4659501 1.3357955 0.58780867 0 255 0
1.4699135 1.3370559 0.58503336 0 255 0
1.473877 1.3383163 0.58225799 0 255 0
1.4778404 1.3395767 0.57948267 0 255 0
1.4818039 1.3408371 0.57670736 0 255 0
1.4857674 1.3420975 0.57393205 0 255 0
1.4897308 1.3433579 0.57115668 0 255 0
1.4936943 1.3446183 0.56838137 0 255 0
1.4976578 1.3458787 0.565606 0 255 0
1.5016211 1.3471391 0.56283069 0 255 0
1.5055846 1.3483995 0.56005538 0 255 0
1.5095481 1.3496599 0.55728 0 255 0
1.5135115 1.3509203 0.55450469 0 255 0
1.517475 1.3521807 0.55172938 0 255 0
1.5214385 1.3534411 0.54895401 0 255 0
1.5254019 1.3547015 0.5461787 0 255 0
1.5293654 1.3559619 0.54340339 0 255 0
1.5333288 1.3572223 0.54062802 0 255 0
1.5372922 1.3584827 0.5378527 0 255 0
1.5412557 1.3597431 0.53507739 0 255 0
1.5452192 1.3610035 0.53230208 0 255 0
1.5491827 1.3622639 0.52952671 0 255 0
1.5531461 1.3635243 0.5267514 0 255 0
1.5571096 1.3647847 0.52397609 0 255 0
1.5610731 1.3660451 0.52120072 0 255 0
1.5650364 1.3673055 0.51842541 0 255 0
1.5689999 1.3685659 0.51565009 0 255 0
1.5729634 1.3698263 0.51287472 0 255 0
1.5769268 1.3710867 0.51009941 0 255 0
1.5808903 1.3723471 0.5073241 0 255 0
1.5848538 1.3736075 0.50454879 0 255 0
1.5888172 1.3748679 0.50177342 0 255 0
1.5927806 1.3761283 0.49899811 0 255 0
1.5967441 1.3773887 0.49622276 0 255 0
1.6007075 1.3786491 0.49344745 0 255 0
1.604671 1.3799095 0.49067211 0 255 0
1.6086345 1.3811699 0.48789677 0 255 0
1.6125979 1.3824303 0.48512146 0 255 0
1.6165614 1.3836907 0.48234612 0 255 0
1.6205249 1.3849511 0.47957081 0 255 0
1.6244882 1.3862115 0.47679546 0 255 0
1.6284517 1.3874719 0.47402012 0 255 0
1.6324152 1.3887323 0.47124481 0 255 0
1.6363786 1.3899927 0.46846947 0 255 0
1.6403421 1.3912531 0.46569416 0 255 0
1.6443056 1.3925135 0.46291882 0 255 0
1.6482691 1.3937739 0.46014348 0 255 0
1.6522324 1.3950343 0.45736814 0 255 0
1.6561959 1.3962947 0.45459282 0 255 0
1.6601593 1.3975551 0.45181748 0 255 0
1.6641228 1.3988155 0.44904214 0 255 0
1.6680863 1.4000759 0.44626683 0 255 0
1.6720498 1.4013363 0.44349149 0 255 0
1.6760132 1.4025967 0.44071615 0 255 0
1.6799767 1.4038571 0.43794084 0 255 0
1.6839402 1.4051175 0.43516549 0 255 0
1.6879036 1.4063779 0.43239018 0 255 0
1.691867 1.4076383 0.42961484 0 255 0
1.6958305 1.4088987 0.4268395 0 255 0
1.6997939 1.4101591 0.42406419 0 255 0
1.7037574 1.4114195 0.42128885 0 255 0
1.2955087 1.4135373 0.37970734 0 255 0
1.2994722 1.4147977 0.37693202 0 255 0
1.3034357 1.4160581 0.37415668 0 255 0
1.3073992 1.4173183 0.37138134 0 255 0
1.3113625 1.4185789 0.36860603 0 255 0
1.315326 1.4198391 0.36583069 0 255 0
1.3192894 1.4210997 0.36305535 0 255 0
1.3232529 1.4223601 0.36028004 0 255 0
1.3272164 1.4236205 0.3575047 0 255 0
1.3311799 1.4248809 0.35472935 0 255 0
1.3351433 1.4261413 0.35195404 0 255 0
1.3391068 1.4274017 0.3491787 0 255 0
1.3430703 1.4286621 0.34640336 0 255 0
1.3470337 1.4299225 0.34362805 0 255 0
1.3509971 1.4311829 0.34085271 0 255 0
1.3549606 1.4324433 0.33807737 0 255 0
1.358924 1.4337037 0.33530205 0 255 0
1.3628875 1.4349641 0.33252671 0 255 0
1.366851 1.4362245 0.32975137 0 255 0
1.3708144 1.4374849 0.32697606 0 255 0
1.3747779 1.4387453 0.32420072 0 255 0
1.3787414 1.4400057 0.32142538 0 255 0
1.3827047 1.4412661 0.31865007 0 255 0
1.3866682 1.4425265 0.31587476 0 255 0
1.3906317 1.4437869 0.31309941 0 255 0
1.3945951 1.4450473 0.31032407 0 255 0
1.3985586 1.4463077 0.30754876 0 255 0
1.4025221 1.4475681 0.30477342 0 255 0
1.4064856 1.4488285 0.30199808 0 255 0
1.410449 1.4500889 0.29922277 0 255 0
1.4144124 1.4513493 0.29644746 0 255 0
1.4183758 1.4526097 0.29367208 0 255 0
1.4223393 1.4538701 0.29089677 0 255 0
1.4263028 1.4551305 0.28812146 0 255 0
1.4302663 1.4563909 0.28534612 0 255 0
1.4342297 1.4576513 0.28257078 0 255 0
1.4381932 1.4589117 0.27979547 0 255 0
1.4421566 1.4601721 0.27702013 0 255 0
1.44612 1.4614325 0.27424479 0 255 0
1.4500835 1.4626929 0.27146947 0 255 0
1.454047 1.4639533 0.26869416 0 255 0
1.4580104 1.4652137 0.26591879 0 255 0
1.4619739 1.4664741 0.26314348 0 255 0
1.4659374 1.4677345 0.26036817 0 255 0
1.4699008 1.4689949 0.25759283 0 255 0
1.4738642 1.4702553 0.25481749 0 255 0
1.4778277 1.4715157 0.25204217 0 255 0
1.4817911 1.4727761 0.24926682 0 255 0
1.4857546 1.4740365 0.24649149 0 255 0
1.4897181 1.4752969 0.24371617 0 255 0
1.4936816 1.4765573 0.24094082 0 255 0
1.497645 1.4778177 0.2381655 0 255 0
1.5016085 1.4790781 0.23539017 0 255 0
1.505572 1.4803385 0.23261485 0 255 0
1.5095353 1.4815989 0.2298395 0 255 0
1.5134988 1.4828593 0.22706418 0 255 0
1.5174623 1.4841197 0.22428885 0 255 0
1.5214257 1.4853801 0.22151352 0 255 0
1.5253892 1.4866405 0.2187382 0 255 0
1.5293527 1.4879009 0.21596287 0 255 0
1.533316 1.4891613 0.21318755 0 255 0
1.4618205 1.3391702 0.59245169 255 0 0
1.4587768 1.3405584 0.58873558 255 0 0
1.4557333 1.3419467 0.58501947 255 0 0
1.4526896 1.3433349 0.58130342 255 0 0
1.4496461 1.3447232 0.57758731 255 0 0
1.4466025 1.3461114 0.5738712 255 0 0
1.4435589 1.3474996 0.57015514 255 0 0
1.4405153 1.3488879 0.56643903 255 0 0
1.4374717 1.3502761 0.56272292 255 0 0
1.4344281 1.3516644 0.55900681 255 0 0
1.4313846 1.3530526 0.5552907 255 0 0
1.4283409 1.3544409 0.55157459 255 0 0
1.4252973 1.3558291 0.54785854 255 0 0
1.4222537 1.3572174 0.54414243 255 0 0
1.4192101 1.3586056 0.54042631 255 0 0
1.4161665 1.3599939 0.5367102 255 0 0
1.4131229 1.3613821 0.53299415 255 0 0
1.4100794 1.3627703 0.52927804 255 0 0
1.4070357 1.3641586 0.52556193 255 0 0
1.4039922 1.3655468 0.52184582 255 0 0
1.4009485 1.3669351 0.51812977 255 0 0
1.397905 1.3683233 0.51441365 255 0 0
1.3948613 1.3697116 0.51069754 255 0 0
1.3918178 1.3710998 0.50698149 255 0 0
1.3887742 1.372488 0.50326538 255 0 0
1.3857306 1.3738763 0.49954927 255 0 0
1.382687 1.3752645 0.49583319 255 0 0
1.3796434 1.3766528 0.49211711 255 0 0
1.3765998 1.378041 0.488401 255 0 0
1.3735561 1.3794293 0.48468488 255 0 0
1.3705126 1.3808175 0.4809688 255 0 0
1.3674691 1.3822058 0.47725272 255 0 0
1.3644254 1.383594 0.47353661 255 0 0
1.3613818 1.3849823 0.46982053 255 0 0
1.3583382 1.3863705 0.46610442 255 0 0
1.3552946 1.3877587 0.46238834 255 0 0
1.3522511 1.389147 0.45867226 255 0 0
1.3492074 1.3905352 0.45495614 255 0 0
1.3461639 1.3919235 0.45124006 255 0 0
1.3431202 1.3933117 0.44752395 255 0 0
1.3400767 1.3947001 0.44380787 255 0 0
1.337033 1.3960882 0.44009176 255 0 0
1.3339895 1.3974764 0.43637568 255 0 0
1.3309458 1.3988647 0.43265957 255 0 0
1.3279023 1.4002529 0.42894349 255 0 0
1.3248587 1.4016412 0.42522737 255 0 0
1.321815 1.4030294 0.42151129 255 0 0
1.3187715 1.4044178 0.41779518 255 0 0
1.3157279 1.4058059 0.4140791 255 0 0
1.3126843 1.4071943 0.41036299 255 0 0
1.3096406 1.4085824 0.40664691 255 0 0
1.3065971 1.4099708 0.4029308 255 0 0
1.3035535 1.411359 0.39921471 255 0 0
1.3005099 1.4127471 0.3954986 255 0 0
1.2974663 1.4141355 0.39178252 255 0 0
1.2944227 1.4155236 0.38806641 255 0 0
1.7035912 1.4160546 0.42315653 255 0 0
1.7005476 1.4174428 0.41944045 255 0 0
1.697504 1.4188311 0.41572434 255 0 0
1.6944604 1.4202193 0.41200826 255 0 0
1.6914169 1.4216076 0.40829217 255 0 0
1.6883732 1.4229958 0.40457606 255 0 0
1.6853297 1.4243841 0.40085998 255 0 0
1.682286 1.4257723 0.39714387 255 0 0
1.6792425 1.4271605 0.39342779 255 0 0
1.6761988 1.4285488 0.38971168 255 0 0
1.6731553 1.429937 0.38599557 255 0 0
1.6701117 1.4313253 0.38227949 255 0 0
1.667068 1.4327135 0.37856337 255 0 0
1.6640245 1.4341018 0.37484729 255 0 0
1.6609809 1.43549 0.37113118 255 0 0
1.6579373 1.4368783 0.3674151 255 0 0
1.6548936 1.4382665 0.36369902 255 0 0
1.6518501 1.4396548 0.35998291 255 0 0
1.6488065 1.441043 0.3562668 255 0 0
1.6457629 1.4424312 0.35255072 255 0 0
1.6427193 1.4438195 0.34883463 255 0 0
1.6396757 1.4452077 0.34511852 255 0 0
1.6366321 1.446596 0.34140244 255 0 0
1.6335886 1.4479842 0.33768633 255 0 0
1.6305449 1.4493725 0.33397025 255 0 0
1.6275014 1.4507607 0.33025414 255 0 0
1.6244577 1.4521489 0.32653806 255 0 0
1.6214142 1.4535372 0.32282197 255 0 0
1.6183705 1.4549254 0.31910586 255 0 0
1.615327 1.4563137 0.31538975 255 0 0
1.6122833 1.4577019 0.31167367 255 0 0
1.6092398 1.4590902 0.30795759 255 0 0
1.6061962 1.4604784 0.30424148 255 0 0
1.6031526 1.4618667 0.3005254 255 0 0
1.600109 1.4632549 0.29680932 255 0 0
1.5970654 1.4646431 0.2930932 255 0 0
1.5940218 1.4660314 0.28937709 255 0 0
1.5909781 1.4674196 0.28566101 255 0 0
1.5879346 1.4688079 0.28194493 255 0 0
1.584891 1.4701961 0.27822882 255 0 0
1.5818474 1.4715844 0.27451274 255 0 0
1.5788038 1.4729726 0.27079666 255 0 0
1.5757602 1.4743609 0.26708055 255 0 0
1.5727166 1.4757491 0.26336443 255 0 0
1.5696731 1.4771373 0.25964835 255 0 0
1.5666294 1.4785256 0.25593227 255 0 0
1.5635859 1.4799138 0.25221616 255 0 0
1.5605422 1.4813021 0.24850006 255 0 0
1.5574987 1.4826903 0.24478397 255 0 0
1.554455 1.4840786 0.24106787 255 0 0
1.5514114 1.4854668 0.23735178 255 0 0
1.5483679 1.4868551 0.23363568 255 0 0
1.5453242 1.4882433 0.22991958 255 0 0
1.5422807 1.4896315 0.22620349 255 0 0
1.539237 1.4910198 0.22248739 255 0 0
1.5361935 1.492408 0.21877129 255 0 0
1.465784 1.3404306 0.58967638 0 255 0
1.4697473 1.341691 0.58690101 0 255 0
1.4737108 1.3429514 0.5841257 0 255 0
1.4776742 1.3442118 0.58135033 0 255 0
1.4816377 1.3454722 0.57857502 0 255 0
1.4856012 1.3467326 0.5757997 0 255 0
1.4895647 1.347993 0.57302439 0 255 0
1.4935281 1.3492534 0.57024902 0 255 0
1.4974915 1.3505138 0.56747371 0 255 0
1.5014549 1.3517742 0.5646984 0 255 0
1.5054184 1.3530346 0.56192303 0 255 0
1.5093819 1.354295 0.55914772 0 255 0
1.5133454 1.3555554 0.5563724 0 255 0
1.5173088 1.3568158 0.55359703 0 255 0
1.5212723 1.3580762 0.55082172 0 255 0
1.5252358 1.3593366 0.54804641 0 255 0
1.5291992 1.360597 0.54527104 0 255 0
1.5331626 1.3618574 0.54249573 0 255 0
1.5371261 1.3631178 0.53972042 0 255 0
1.5410895 1.3643782 0.53694504 0 255 0
1.545053 1.3656386 0.53416973 0 255 0
1.5490165 1.366899 0.53139442 0 255 0
1.5529799 1.3681594 0.52861905 0 255 0
1.5569434 1.3694198 0.52584374 0 255 0
1.5609069 1.3706802 0.52306843 0 255 0
1.5648702 1.3719406 0.52029312 0 255 0
1.5688337 1.373201 0.51751775 0 255 0
1.5727972 1.3744614 0.51474243 0 255 0
1.5767606 1.3757218 0.51196712 0 255 0
1.5807241 1.3769822 0.50919175 0 255 0
1.5846876 1.3782426 0.50641644 0 255 0
1.5886511 1.379503 0.50364113 0 255 0
1.5926144 1.3807634 0.50086576 0 255 0
1.5965779 1.3820238 0.49809045 0 255 0
1.6005414 1.3832842 0.49531513 0 255 0
1.6045048 1.3845446 0.49253979 0 255 0
1.6084683 1.385805 0.48976445 0 255 0
1.6124318 1.3870654 0.48698914 0 255 0
1.6163952 1.3883258 0.4842138 0 255 0
1.6203587 1.3895862 0.48143846 0 255 0
1.6243221 1.3908466 0.47866315 0 255 0
1.6282855 1.392107 0.47588781 0 255 0
1.632249 1.3933674 0.47311249 0 255 0
1.6362125 1.3946278 0.47033715 0 255 0
1.6401759 1.3958882 0.46756184 0 255 0
1.6441394 1.3971486 0.4647865 0 255 0
1.6481029 1.398409 0.46201116 0 255 0
1.6520662 1.3996694 0.45923582 0 255 0
1.6560297 1.4009298 0.45646051 0 255 0
1.6599932 1.4021902 0.45368516 0 255 0
1.6639566 1.4034506 0.45090982 0 255 0
1.6679201 1.404711 0.44813451 0 255 0
1.6718836 1.4059714 0.44535917 0 255 0
1.6758471 1.4072318 0.44258383 0 255 0
1.6798105 1.4084922 0.43980852 0 255 0
1.683774 1.4097526 0.43703318 0 255 0
1.6877375 1.411013 0.43425786 0 255 0
1.6917008 1.4122734 0.43148252 0 255 0
1.6956643 1.4135338 0.42870718 0 255 0
1.6996278 1.4147942 0.42593187 0 255 0
1.7035912 1.4160546 0.42315653 0 255 0
1.2953426 1.4181724 0.38157502 0 255 0
1.299306 1.4194328 0.37879968 0 255 0
1.3032695 1.4206932 0.37602437 0 255 0
1.307233 1.4219536 0.37324902 0 255 0
1.3111963 1.423214 0.37047371 0 255 0
1.3151598 1.4244744 0.36769837 0 255 0
1.3191233 1.4257348 0.36492306 0 255 0
1.3230867 1.4269952 0.36214772 0 255 0
1.3270502 1.4282556 0.35937238 0 255 0
1.3310137 1.429516 0.35659707 0 255 0
1.3349771 1.4307764 0.35382172 0 255 0
1.3389406 1.4320368 0.35104638 0 255 0
1.3429041 1.4332972 0.34827107 0 255 0
1.3468676 1.4345576 0.34549573 0 255 0
1.3508309 1.435818 0.34272039 0 255 0
1.3547944 1.4370784 0.33994505 0 255 0
1.3587579 1.4383388 0.33716971 0 255 0
1.3627213 1.4395992 0.3343944 0 255 0
1.3666848 1.4408596 0.33161908 0 255 0
1.3706483 1.44212 0.32884374 0 255 0
1.3746117 1.4433804 0.3260684 0 255 0
1.3785751 1.4446408 0.32329309 0 255 0
1.3825386 1.4459012 0.32051775 0 255 0
1.386502 1.4471616 0.31774241 0 255 0
1.3904655 1.448422 0.3149671 0 255 0
1.394429 1.4496824 0.31219175 0 255 0
1.3983924 1.4509428 0.30941644 0 255 0
1.4023559 1.4522032 0.3066411 0 255 0
1.4063194 1.4534636 0.30386579 0 255 0
1.4102827 1.454724 0.30109045 0 255 0
1.4142462 1.4559844 0.29831511 0 255 0
1.4182097 1.4572448 0.2955398 0 255 0
1.4221731 1.4585052 0.29276446 0 255 0
1.4261366 1.4597656 0.28998911 0 255 0
1.4301001 1.461026 0.2872138 0 255 0
1.4340636 1.4622864 0.28443846 0 255 0
1.4380269 1.4635468 0.28166312 0 255 0
1.4419904 1.4648072 0.27888781 0 255 0
1.4459538 1.4660676 0.2761125 0 255 0
1.4499173 1.467328 0.27333716 0 255 0
1.4538808 1.4685884 0.27056181 0 255 0
1.4578443 1.4698488 0.2677865 0 255 0
1.4618077 1.4711092 0.26501116 0 255 0
1.4657712 1.4723696 0.26223582 0 255 0
1.4697345 1.47363 0.25946051 0 255 0
1.473698 1.4748904 0.25668517 0 255 0
1.4776615 1.4761508 0.25390983 0 255 0
1.481625 1.4774112 0.25113451 0 255 0
1.4855884 1.4786716 0.24835917 0 255 0
1.4895519 1.479932 0.24558385 0 255 0
1.4935154 1.4811924 0.24280851 0 255 0
1.4974788 1.4824528 0.24003318 0 255 0
1.5014423 1.4837132 0.23725785 0 255 0
1.5054057 1.4849735 0.23448253 0 255 0
1.5093691 1.4862339 0.23170719 0 255 0
1.5133326 1.4874943 0.22893186 0 255 0
1.5172961 1.4887547 0.22615653 0 255 0
1.5212595 1.4900151 0.22338121 0 255 0
1.525223 1.4912755 0.22060588 0 255 0
1.5291865 1.4925359 0.21783055 0 255 0
1.5331498 1.4937963 0.21505523 0 255 0
1.4616543 1.3438053 0.59431934 255 0 0
1.4586107 1.3451935 0.59060323 255 0 0
1.4555671 1.3465818 0.58688718 255 0 0
1.4525235 1.34797 0.58317107 255 0 0
1.4494799 1.3493583 0.57945502 255 0 0
1.4464363 1.3507465 0.57573891 255 0 0
1.4433928 1.3521348 0.5720228 255 0 0
1.4403491 1.353523 0.56830668 255 0 0
1.4373055 1.3549113 0.56459057 255 0 0
1.4342619 1.3562995 0.56087446 255 0 0
1.4312183 1.3576877 0.55715841 255 0 0
1.4281747 1.359076 0.5534423 255 0 0
1.4251311 1.3604642 0.54972619 255 0 0
1.4220876 1.3618525 0.54601008 255 0 0
1.4190439 1.3632407 0.54229403 255 0 0
1.4160004 1.364629 0.53857791 255 0 0
1.4129567 1.3660172 0.5348618 255 0 0
1.4099132 1.3674054 0.53114569 255 0 0
1.4068695 1.3687937 0.52742964 255 0 0
1.403826 1.370182 0.52371353 255 0 0
1.4007823 1.3715702 0.51999742 255 0 0
1.3977388 1.3729584 0.51628137 255 0 0
1.3946952 1.3743467 0.51256526 255 0 0
1.3916516 1.3757349 0.50884914 255 0 0
1.388608 1.3771232 0.50513303 255 0 0
1.3855644 1.3785114 0.50141698 255 0 0
1.3825208 1.3798997 0.49770087 255 0 0
1.3794773 1.3812879 0.49398476 255 0 0
1.3764336 1.3826761 0.49026868 255 0 0
1.37339 1.3840644 0.4865526 255 0 0
1.3703464 1.3854526 0.48283648 255 0 0
1.3673028 1.3868409 0.4791204 255 0 0
1.3642592 1.3882291 0.47540429 255 0 0
1.3612156 1.3896174 0.47168821 255 0 0
1.3581721 1.3910056 0.4679721 255 0 0
1.3551284 1.3923938 0.46425602 255 0 0
1.3520849 1.3937821 0.46053994 255 0 0
1.3490412 1.3951703 0.45682383 255 0 0
1.3459977 1.3965586 0.45310774 255 0 0
1.342954 1.3979468 0.44939163 255 0 0
1.3399105 1.3993351 0.44567555 255 0 0
1.3368669 1.4007233 0.44195944 255 0 0
1.3338233 1.4021116 0.43824336 255 0 0
1.3307797 1.4034998 0.43452725 255 0 0
1.3277361 1.4048882 0.43081117 255 0 0
1.3246925 1.4062763 0.42709506 255 0 0
1.3216488 1.4076645 0.42337897 255 0 0
1.3186053 1.4090528 0.41966286 255 0 0
1.3155617 1.410441 0.41594678 255 0 0
1.3125181 1.4118294 0.41223067 255 0 0
1.3094745 1.4132175 0.40851459 255 0 0
1.3064309 1.4146059 0.40479848 255 0 0
1.3033873 1.415994 0.4010824 255 0 0
1.3003438 1.4173822 0.39736629 255 0 0
1.2973001 1.4187706 0.3936502 255 0 0
1.2942566 1.4201587 0.38993409 255 0 0
1.703425 1.4206897 0.42502421 255 0 0
1.7003814 1.4220779 0.42130813 255 0 0
1.6973379 1.4234662 0.41759205 255 0 0
1.6942942 1.4248544 0.41387594 255 0 0
1.6912507 1.4262427 0.41015986 255 0 0
1.688207 1.4276309 0.40644374 255 0 0
1.6851635 1.4290192 0.40272766 255 0 0
1.6821198 1.4304074 0.39901155 255 0 0
1.6790763 1.4317957 0.39529544 255 0 0
1.6760327 1.4331839 0.39157936 255 0 0
1.6729891 1.4345722 0.38786328 255 0 0
1.6699455 1.4359604 0.38414717 255 0 0
1.6669018 1.4373486 0.38043106 255 0 0
1.6638583 1.4387369 0.37671497 255 0 0
1.6608146 1.4401251 0.37299889 255 0 0
1.6577711 1.4415134 0.36928278 255 0 0
1.6547275 1.4429016 0.36556667 255 0 0
1.6516839 1.4442899 0.36185059 255 0 0
1.6486403 1.4456781 0.35813451 255 0 0
1.6455967 1.4470663 0.3544184 255 0 0
1.6425531 1.4484546 0.35070232 255 0 0
1.6395096 1.4498428 0.3469862 255 0 0
1.6364659 1.4512311 0.34327012 255 0 0
1.6334224 1.4526193 0.33955401 255 0 0
1.6303787 1.4540076 0.33583793 255 0 0
1.6273352 1.4553958 0.33212185 255 0 0
1.6242915 1.4567841 0.32840574 255 0 0
1.621248 1.4581723 0.32468963 255 0 0
1.6182044 1.4595605 0.32097355 255 0 0
1.6151608 1.4609488 0.31725746 255 0 0
1.6121172 1.462337 0.31354135 255 0 0
1.6090736 1.4637253 0.30982527 255 0 0
1.60603 1.4651135 0.30610919 255 0 0
1.6029863 1.4665018 0.30239308 255 0 0
1.5999428 1.46789 0.29867697 255 0 0
1.5968992 1.4692783 0.29496089 255 0 0
1.5938556 1.4706665 0.2912448 255 0 0
1.590812 1.4720547 0.28752869 255 0 0
1.5877684 1.473443 0.28381261 255 0 0
1.5847248 1.4748312 0.28009653 255 0 0
1.5816813 1.4762195 0.27638042 255 0 0
1.5786376 1.4776077 0.27266431 255 0 0
1.5755941 1.478996 0.26894823 255 0 0
1.5725504 1.4803842 0.26523215 255 0 0
1.5695069 1.4817725 0.26151603 255 0 0
1.5664632 1.4831607 0.25779992 255 0 0
1.5634197 1.4845489 0.25408384 255 0 0
1.560376 1.4859372 0.25036776 255 0 0
1.5573325 1.4873254 0.24665165 255 0 0
1.5542889 1.4887137 0.24293555 255 0 0
1.5512452 1.4901019 0.23921946 255 0 0
1.5482017 1.4914902 0.23550336 255 0 0
1.545158 1.4928784 0.23178726 255 0 0
1.5421145 1.4942667 0.22807117 255 0 0
1.5390708 1.4956549 0.22435507 255 0 0
1.5360273 1.4970431 0.22063898 255 0 0
1.4656177 1.3450657 0.59154403 0 255 0
1.4695811 1.3463261 0.58876872 0 255 0
1.4735446 1.3475865 0.58599341 0 255 0
1.4775081 1.3488469 0.58321804 0 255 0
1.4814715 1.3501073 0.58044273 0 255 0
1.485435 1.3513677 0.57766736 0 255 0
1.4893985 1.3526281 0.57489204 0 255 0
1.4933619 1.3538885 0.57211673 0 255 0
1.4973253 1.3551489 0.56934142 0 255 0
1.5012888 1.3564093 0.56656605 0 255 0
1.5052522 1.3576697 0.56379074 0 255 0
1.5092157 1.3589301 0.56101537 0 255 0
1.5131792 1.3601905 0.55824006 0 255 0
1.5171427 1.3614509 0.55546474 0 255 0
1.5211061 1.3627113 0.55268937 0 255 0
1.5250696 1.3639717 0.54991406 0 255 0
1.5290329 1.3652321 0.54713875 0 255 0
1.5329964 1.3664925 0.54436338 0 255 0
1.5369599 1.3677529 0.54158807 0 255 0
1.5409234 1.3690133 0.53881276 0 255 0
1.5448868 1.3702737 0.53603745 0 255 0
1.5488503 1.3715341 0.53326207 0 255 0
1.5528138 1.3727945 0.53048676 0 255 0
1.5567772 1.3740549 0.52771145 0 255 0
1.5607406 1.3753153 0.52493608 0 255 0
1.5647041 1.3765757 0.52216077 0 255 0
1.5686675 1.3778361 0.51938546 0 255 0
1.572631 1.3790965 0.51661009 0 255 0
1.5765945 1.3803569 0.51383477 0 255 0
1.5805579 1.3816173 0.51105946 0 255 0
1.5845214 1.3828777 0.50828409 0 255 0
1.5884848 1.3841381 0.50550878 0 255 0
1.5924482 1.3853985 0.50273347 0 255 0
1.5964117 1.3866589 0.49995813 0 255 0
1.6003752 1.3879193 0.49718279 0 255 0
1.6043386 1.3891797 0.49440747 0 255 0
1.6083021 1.3904401 0.49163213 0 255 0
1.6122656 1.3917005 0.48885682 0 255 0
1.6162291 1.3929609 0.48608148 0 255 0
1.6201924 1.3942213 0.48330617 0 255 0
1.6241559 1.3954817 0.48053083 0 255 0
1.6281193 1.3967421 0.47775549 0 255 0
1.6320828 1.3980025 0.47498018 0 255 0
1.6360463 1.3992629 0.47220483 0 255 0
1.6400098 1.4005233 0.46942949 0 255 0
1.6439732 1.4017837 0.46665418 0 255 0
1.6479366 1.4030441 0.46387884 0 255 0
1.6519001 1.4043045 0.4611035 0 255 0
1.6558635 1.4055649 0.45832819 0 255 0
1.659827 1.4068253 0.45555285 0 255 0
1.6637905 1.4080857 0.4527775 0 255 0
1.6677539 1.4093461 0.45000219 0 255 0
1.6717174 1.4106065 0.44722685 0 255 0
1.6756809 1.4118669 0.44445151 0 255 0
1.6796443 1.4131273 0.4416762 0 255 0
1.6836078 1.4143877 0.43890086 0 255 0
1.6875712 1.4156481 0.43612555 0 255 0
1.6915346 1.4169085 0.43335021 0 255 0
1.6954981 1.4181689 0.43057486 0 255 0
1.6994616 1.4194293 0.42779955 0 255 0
1.703425 1.4206897 0.42502421 0 255 0
1.2951764 1.4228075 0.3834427 0 255 0
1.2991399 1.4240679 0.38066736 0 255 0
1.3031033 1.4253283 0.37789205 0 255 0
1.3070668 1.4265887 0.37511671 0 255 0
1.3110301 1.4278491 0.37234139 0 255 0
1.3149936 1.4291095 0.36956605 0 255 0
1.3189571 1.4303699 0.36679071 0 255 0
1.3229206 1.4316303 0.3640154 0 255 0
1.326884 1.4328907 0.36124006 0 255 0
1.3308475 1.4341511 0.35846472 0 255 0
1.334811 1.4354115 0.35568941 0 255 0
1.3387744 1.4366719 0.35291407 0 255 0
1.3427379 1.4379323 0.35013872 0 255 0
1.3467013 1.4391927 0.34736341 0 255 0
1.3506647 1.4404531 0.34458807 0 255 0
1.3546282 1.4417135 0.34181273 0 255 0
1.3585917 1.4429739 0.33903742 0 255 0
1.3625551 1.4442343 0.33626208 0 255 0
1.3665186 1.4454947 0.33348674 0 255 0
1.3704821 1.4467551 0.33071142 0 255 0
1.3744456 1.4480155 0.32793608 0 255 0
1.3784089 1.4492759 0.32516074 0 255 0
1.3823724 1.4505363 0.32238543 0 255 0
1.3863358 1.4517967 0.31961012 0 255 0
1.3902993 1.4530571 0.31683478 0 255 0
1.3942628 1.4543175 0.31405944 0 255 0
1.3982263 1.4555779 0.31128412 0 255 0
1.4021897 1.4568383 0.30850878 0 255 0
1.4061532 1.4580986 0.30573344 0 255 0
1.4101166 1.459359 0.30295813 0 255 0
1.41408 1.4606194 0.30018282 0 255 0
1.4180435 1.4618798 0.29740745 0 255 0
1.422007 1.4631402 0.29463214 0 255 0
1.4259704 1.4644006 0.29185683 0 255 0
1.4299339 1.465661 0.28908148 0 255 0
1.4338974 1.4669214 0.28630614 0 255 0
1.4378607 1.4681818 0.28353083 0 255 0
1.4418242 1.4694422 0.28075549 0 255 0
1.4457877 1.4707026 0.27798015 0 255 0
1.4497511 1.471963 0.27520484 0 255 0
1.4537146 1.4732234 0.27242953 0 255 0
1.4576781 1.4744838 0.26965415 0 255 0
1.4616416 1.4757442 0.26687884 0 255 0
1.465605 1.4770046 0.26410353 0 255 0
1.4695684 1.478265 0.26132819 0 255 0
1.4735318 1.4795254 0.25855285 0 255 0
1.4774953 1.4807858 0.25577754 0 255 0
1.4814588 1.4820462 0.25300217 0 255 0
1.4854223 1.4833066 0.25022686 0 255 0
1.4893857 1.484567 0.24745153 0 255 0
1.4933492 1.4858274 0.24467619 0 255 0
1.4973127 1.4870878 0.24190086 0 255 0
1.501276 1.4883482 0.23912553 0 255 0
1.5052395 1.4896086 0.23635021 0 255 0
1.509203 1.490869 0.23357487 0 255 0
1.5131664 1.4921294 0.23079954 0 255 0
1.5171299 1.4933898 0.22802421 0 255 0
1.5210934 1.4946502 0.22524889 0 255 0
1.5250568 1.4959106 0.22247356 0 255 0
1.5290202 1.497171 0.21969824 0 255 0
1.5329837 1.4984314 0.21692291 0 255 0
1.4614881 1.3484404 0.596187 255 0 0
1.4584445 1.3498287 0.59247094 255 0 0
1.4554009 1.3512169 0.58875483 255 0 0
1.4523573 1.3526051 0.58503878 255 0 0
1.4493138 1.3539934 0.58132267 255 0 0
1.4462701 1.3553816 0.57760656 255 0 0
1.4432266 1.3567699 0.57389045 255 0 0
1.4401829 1.3581581 0.57017434 255 0 0
1.4371393 1.3595464 0.56645823 255 0 0
1.4340957 1.3609346 0.56274217 255 0 0
1.4310521 1.3623228 0.55902606 255 0 0
1.4280086 1.3637111 0.55530995 255 0 0
1.4249649 1.3650993 0.5515939 255 0 0
1.4219214 1.3664876 0.54787779 255 0 0
1.4188777 1.3678758 0.54416168 255 0 0
1.4158342 1.3692641 0.54044557 255 0 0
1.4127905 1.3706523 0.53672951 255 0 0
1.409747 1.3720406 0.5330134 255 0 0
1.4067034 1.3734288 0.52929729 255 0 0
1.4036598 1.3748171 0.52558124 255 0 0
1.4006162 1.3762053 0.52186513 255 0 0
1.3975725 1.3775935 0.51814902 255 0 0
1.394529 1.3789818 0.51443291 255 0 0
1.3914853 1.38037 0.51071686 255 0 0
1.3884418 1.3817583 0.50700074 255 0 0
1.3853981 1.3831465 0.50328463 255 0 0
1.3823546 1.3845348 0.49956855 255 0 0
1.379311 1.385923 0.49585247 255 0 0
1.3762674 1.3873112 0.49213636 255 0 0
1.3732238 1.3886995 0.48842025 255 0 0
1.3701802 1.3900877 0.48470417 255 0 0
1.3671366 1.391476 0.48098809 255 0 0
1.3640931 1.3928642 0.47727197 255 0 0
1.3610494 1.3942525 0.47355589 255 0 0
1.3580059 1.3956407 0.46983978 255 0 0
1.3549622 1.397029 0.4661237 255 0 0
1.3519187 1.3984172 0.46240759 255 0 0
1.348875 1.3998054 0.45869151 255 0 0
1.3458315 1.4011937 0.45497543 255 0 0
1.3427879 1.4025819 0.45125932 255 0 0
1.3397443 1.4039702 0.44754323 255 0 0
1.3367007 1.4053584 0.44382712 255 0 0
1.3336571 1.4067467 0.44011104 255 0 0
1.3306135 1.4081349 0.43639493 255 0 0
1.32757 1.4095232 0.43267885 255 0 0
1.3245263 1.4109114 0.42896274 255 0 0
1.3214827 1.4122996 0.42524666 255 0 0
1.3184391 1.4136879 0.42153054 255 0 0
1.3153955 1.4150761 0.41781446 255 0 0
1.3123519 1.4164644 0.41409835 255 0 0
1.3093083 1.4178526 0.41038227 255 0 0
1.3062648 1.419241 0.40666616 255 0 0
1.3032211 1.4206291 0.40295005 255 0 0
1.3001776 1.4220175 0.39923397 255 0 0
1.2971339 1.4234056 0.39551789 255 0 0
1.2940904 1.424794 0.39180177 255 0 0
1.7032589 1.4253248 0.42689189 255 0 0
1.7002152 1.4267131 0.42317581 255 0 0
1.6971717 1.4281013 0.4194597 255 0 0
1.694128 1.4294895 0.41574362 255 0 0
1.6910845 1.4308778 0.41202754 255 0 0
1.6880409 1.432266 0.40831143 255 0 0
1.6849973 1.4336543 0.40459532 255 0 0
1.6819537 1.4350425 0.40087923 255 0 0
1.6789101 1.4364308 0.39716315 255 0 0
1.6758665 1.437819 0.39344704 255 0 0
1.672823 1.4392073 0.38973093 255 0 0
1.6697793 1.4405955 0.38601485 255 0 0
1.6667356 1.4419837 0.38229874 255 0 0
1.6636921 1.443372 0.37858266 255 0 0
1.6606485 1.4447602 0.37486655 255 0 0
1.6576049 1.4461485 0.37115046 255 0 0
1.6545613 1.4475367 0.36743435 255 0 0
1.6515177 1.448925 0.36371827 255 0 0
1.6484741 1.4503132 0.36000216 255 0 0
1.6454306 1.4517015 0.35628608 255 0 0
1.6423869 1.4530897 0.35257 255 0 0
1.6393434 1.4544779 0.34885389 255 0 0
1.6362997 1.4558662 0.3451378 255 0 0
1.6332562 1.4572544 0.34142169 255 0 0
1.6302125 1.4586427 0.33770561 255 0 0
1.627169 1.4600309 0.3339895 255 0 0
1.6241254 1.4614192 0.33027342 255 0 0
1.6210818 1.4628074 0.32655734 255 0 0
1.6180382 1.4641957 0.32284123 255 0 0
1.6149945 1.4655839 0.31912512 255 0 0
1.611951 1.4669721 0.31540903 255 0 0
1.6089073 1.4683604 0.31169295 255 0 0
1.6058638 1.4697486 0.30797684 255 0 0
1.6028202 1.4711369 0.30426073 255 0 0
1.5997766 1.4725251 0.30054465 255 0 0
1.596733 1.4739134 0.29682857 255 0 0
1.5936894 1.4753016 0.29311246 255 0 0
1.5906458 1.4766899 0.28939638 255 0 0
1.5876023 1.4780781 0.28568029 255 0 0
1.5845586 1.4794663 0.28196418 255 0 0
1.5815151 1.4808546 0.27824807 255 0 0
1.5784714 1.4822428 0.27453199 255 0 0
1.5754279 1.4836311 0.27081591 255 0 0
1.5723842 1.4850193 0.2670998 255 0 0
1.5693407 1.4864076 0.26338369 255 0 0
1.5662971 1.4877958 0.25966761 255 0 0
1.5632534 1.4891841 0.25595152 255 0 0
1.5602099 1.4905723 0.25223541 255 0 0
1.5571662 1.4919605 0.24851932 255 0 0
1.5541227 1.4933488 0.24480322 255 0 0
1.551079 1.494737 0.24108712 255 0 0
1.5480355 1.4961253 0.23737103 255 0 0
1.5449919 1.4975135 0.23365493 255 0 0
1.5419483 1.4989018 0.22993883 255 0 0
1.5389047 1.50029 0.22622274 255 0 0
1.5358611 1.5016783 0.22250664 255 0 0
1.4654515 1.3497008 0.59341168 0 255 0
1.4694149 1.3509612 0.59063637 0 255 0
1.4733784 1.3522216 0.58786106 0 255 0
1.4773419 1.353482 0.58508569 0 255 0
1.4813054 1.3547424 0.58231038 0 255 0
1.4852688 1.3560028 0.57953507 0 255 0
1.4892323 1.3572632 0.5767597 0 255 0
1.4931957 1.3585236 0.57398438 0 255 0
1.4971591 1.359784 0.57120907 0 255 0
1.5011226 1.3610444 0.56843376 0 255 0
1.5050861 1.3623048 0.56565839 0 255 0
1.5090495 1.3635652 0.56288308 0 255 0
1.513013 1.3648256 0.56010777 0 255 0
1.5169765 1.366086 0.5573324 0 255 0
1.5209399 1.3673464 0.55455709 0 255 0
1.5249034 1.3686068 0.55178177 0 255 0
1.5288668 1.3698672 0.5490064 0 255 0
1.5328302 1.3711276 0.54623109 0 255 0
1.5367937 1.372388 0.54345578 0 255 0
1.5407572 1.3736484 0.54068041 0 255 0
1.5447206 1.3749088 0.5379051 0 255 0
1.5486841 1.3761692 0.53512979 0 255 0
1.5526476 1.3774296 0.53235441 0 255 0
1.5566111 1.37869 0.5295791 0 255 0
1.5605744 1.3799504 0.52680379 0 255 0
1.5645379 1.3812108 0.52402842 0 255 0
1.5685014 1.3824712 0.52125311 0 255 0
1.5724648 1.3837316 0.5184778 0 255 0
1.5764283 1.384992 0.51570249 0 255 0
1.5803918 1.3862524 0.51292711 0 255 0
1.5843552 1.3875128 0.5101518 0 255 0
1.5883186 1.3887732 0.50737649 0 255 0
1.5922821 1.3900336 0.50460112 0 255 0
1.5962455 1.391294 0.50182581 0 255 0
1.600209 1.3925544 0.4990505 0 255 0
1.6041725 1.3938148 0.49627516 0 255 0
1.6081359 1.3950752 0.49349982 0 255 0
1.6120994 1.3963356 0.4907245 0 255 0
1.6160628 1.397596 0.48794916 0 255 0
1.6200262 1.3988564 0.48517382 0 255 0
1.6239897 1.4001168 0.48239851 0 255 0
1.6279532 1.4013772 0.47962317 0 255 0
1.6319166 1.4026376 0.47684786 0 255 0
1.6358801 1.403898 0.47407252 0 255 0
1.6398436 1.4051584 0.4712972 0 255 0
1.6438071 1.4064188 0.46852186 0 255 0
1.6477704 1.4076792 0.46574652 0 255 0
1.6517339 1.4089396 0.46297118 0 255 0
1.6556973 1.4102 0.46019587 0 255 0
1.6596608 1.4114604 0.45742053 0 255 0
1.6636243 1.4127208 0.45464519 0 255 0
1.6675878 1.4139812 0.45186988 0 255 0
1.6715512 1.4152416 0.44909453 0 255 0
1.6755147 1.416502 0.44631919 0 255 0
1.6794782 1.4177624 0.44354388 0 255 0
1.6834416 1.4190228 0.44076854 0 255 0
1.687405 1.4202832 0.43799323 0 255 0
1.6913685 1.4215436 0.43521789 0 255 0
1.6953319 1.422804 0.43244255 0 255 0
1.6992954 1.4240644 0.42966723 0 255 0
1.7032589 1.4253248 0.42689189 0 255 0
1.2950102 1.4274426 0.38531038 0 255 0
1.2989737 1.428703 0.38253504 0 255 0
1.3029372 1.4299634 0.37975973 0 255 0
1.3069006 1.4312238 0.37698439 0 255 0
1.310864 1.4324841 0.37420908 0 255 0
1.3148274 1.4337445 0.37143373 0 255 0
1.3187909 1.4350049 0.36865839 0 255 0
1.3227544 1.4362653 0.36588305 0 255 0
1.3267179 1.4375257 0.36310774 0 255 0
1.3306813 1.4387861 0.3603324 0 255 0
1.3346448 1.4400465 0.35755706 0 255 0
1.3386083 1.4413069 0.35478175 0 255 0
1.3425717 1.4425673 0.35200641 0 255 0
1.3465351 1.4438277 0.34923106 0 255 0
1.3504986 1.4450881 0.34645575 0 255 0
1.354462 1.4463485 0.34368041 0 255 0
1.3584255 1.4476089 0.34090507 0 255 0
1.362389 1.4488693 0.33812976 0 255 0
1.3663524 1.4501297 0.33535445 0 255 0
1.3703159 1.4513901 0.33257911 0 255 0
1.3742793 1.4526505 0.32980376 0 255 0
1.3782427 1.4539109 0.32702845 0 255 0
1.3822062 1.4551713 0.32425311 0 255 0
1.3861697 1.4564317 0.32147777 0 255 0
1.3901331 1.4576921 0.31870246 0 255 0
1.3940966 1.4589525 0.31592712 0 255 0
1.3980601 1.4602129 0.31315181 0 255 0
1.4020236 1.4614733 0.31037647 0 255 0
1.4059869 1.4627337 0.30760115 0 255 0
1.4099504 1.4639941 0.30482578 0 255 0
1.4139138 1.4652545 0.30205047 0 255 0
1.4178773 1.4665149 0.29927516 0 255 0
1.4218408 1.4677753 0.29649982 0 255 0
1.4258043 1.4690357 0.29372448 0 255 0
1.4297677 1.4702961 0.29094917 0 255 0
1.4337312 1.4715565 0.28817382 0 255 0
1.4376945 1.4728169 0.28539848 0 255 0
1.441658 1.4740773 0.28262317 0 255 0
1.4456215 1.4753377 0.27984783 0 255 0
1.449585 1.4765981 0.27707249 0 255 0
1.4535484 1.4778585 0.27429718 0 255 0
1.4575119 1.4791189 0.27152184 0 255 0
1.4614754 1.4803793 0.2687465 0 255 0
1.4654387 1.4816397 0.26597118 0 255 0
1.4694022 1.4829001 0.26319587 0 255 0
1.4733657 1.4841605 0.2604205 0 255 0
1.4773291 1.4854209 0.25764519 0 255 0
1.4812926 1.4866813 0.25486985 0 255 0
1.4852561 1.4879417 0.25209451 0 255 0
1.4892195 1.4892021 0.2493192 0 255 0
1.493183 1.4904625 0.24654385 0 255 0
1.4971465 1.4917229 0.24376853 0 255 0
1.5011098 1.4929833 0.2409932 0 255 0
1.5050733 1.4942437 0.23821788 0 255 0
1.5090368 1.4955041 0.23544253 0 255 0
1.5130002 1.4967645 0.23266721 0 255 0
1.5169637 1.4980249 0.22989188 0 255 0
1.5209272 1.4992853 0.22711655 0 255 0
1.5248907 1.5005457 0.22434123 0 255 0
1.528854 1.5018061 0.2215659 0 255 0
1.5328175 1.5030665 0.21879058 0 255 0
1.4613219 1.3530755 0.59805471 255 0 0
1.4582783 1.3544638 0.5943386 255 0 0
1.4552348 1.355852 0.59062254 255 0 0
1.4521911 1.3572402 0.58690643 255 0 0
1.4491475 1.3586285 0.58319032 255 0 0
1.4461039 1.3600167 0.57947421 255 0 0
1.4430603 1.361405 0.57575816 255 0 0
1.4400167 1.3627932 0.57204205 255 0 0
1.4369731 1.3641815 0.56832594 255 0 0
1.4339296 1.3655697 0.56460983 255 0 0
1.4308859 1.366958 0.56089377 255 0 0
1.4278424 1.3683462 0.55717766 255 0 0
1.4247987 1.3697345 0.55346155 255 0 0
1.4217552 1.3711227 0.54974544 255 0 0
1.4187115 1.3725109 0.54602939 255 0 0
1.415668 1.3738992 0.54231328 255 0 0
1.4126244 1.3752874 0.53859717 255 0 0
1.4095807 1.3766757 0.53488106 255 0 0
1.4065372 1.3780639 0.531165 255 0 0
1.4034936 1.3794522 0.52744889 255 0 0
1.40045 1.3808404 0.52373278 255 0 0
1.3974063 1.3822286 0.52001673 255 0 0
1.3943628 1.3836169 0.51630062 255 0 0
1.3913192 1.3850051 0.51258451 255 0 0
1.3882756 1.3863934 0.50886846 255 0 0
1.385232 1.3877816 0.50515234 255 0 0
1.3821884 1.3891699 0.50143623 255 0 0
1.3791448 1.3905581 0.49772012 255 0 0
1.3761013 1.3919464 0.49400404 255 0 0
1.3730576 1.3933346 0.49028796 255 0 0
1.3700141 1.3947229 0.48657185 255 0 0
1.3669704 1.3961111 0.48285577 255 0 0
1.3639269 1.3974993 0.47913966 255 0 0
1.3608832 1.3988876 0.47542357 255 0 0
1.3578397 1.4002758 0.47170746 255 0 0
1.3547961 1.4016641 0.46799138 255 0 0
1.3517525 1.4030523 0.46427527 255 0 0
1.3487089 1.4044406 0.46055919 255 0 0
1.3456652 1.4058288 0.45684311 255 0 0
1.3426217 1.407217 0.453127 255 0 0
1.3395782 1.4086053 0.44941092 255 0 0
1.3365345 1.4099935 0.4456948 255 0 0
1.3334908 1.4113818 0.44197872 255 0 0
1.3304473 1.41277 0.43826261 255 0 0
1.3274037 1.4141583 0.43454653 255 0 0
1.3243601 1.4155465 0.43083042 255 0 0
1.3213165 1.4169348 0.42711434 255 0 0
1.3182729 1.418323 0.42339823 255 0 0
1.3152293 1.4197114 0.41968215 255 0 0
1.3121858 1.4210995 0.41596603 255 0 0
1.3091421 1.4224877 0.41224995 255 0 0
1.3060986 1.423876 0.40853384 255 0 0
1.3030549 1.4252642 0.40481776 255 0 0
1.3000114 1.4266526 0.40110165 255 0 0
1.2969677 1.4280407 0.39738557 255 0 0
1.2939241 1.4294291 0.39366946 255 0 0
1.7030927 1.4299599 0.42875957 255 0 0
1.700049 1.4313482 0.42504349 255 0 0
1.6970055 1.4327364 0.42132738 255 0 0
1.6939619 1.4341247 0.4176113 255 0 0
1.6909183 1.4355129 0.41389522 255 0 0
1.6878747 1.4369011 0.41017911 255 0 0
1.6848311 1.4382894 0.40646303 255 0 0
1.6817875 1.4396776 0.40274692 255 0 0
1.6787438 1.4410659 0.3990308 255 0 0
1.6757003 1.4424541 0.39531472 255 0 0
1.6726567 1.4438424 0.39159861 255 0 0
1.6696131 1.4452306 0.38788253 255 0 0
1.6665695 1.4466189 0.38416642 255 0 0
1.6635259 1.4480071 0.38045034 255 0 0
1.6604823 1.4493954 0.37673423 255 0 0
1.6574388 1.4507836 0.37301815 255 0 0
1.6543951 1.4521718 0.36930203 255 0 0
1.6513516 1.4535601 0.36558595 255 0 0
1.6483079 1.4549483 0.36186987 255 0 0
1.6452644 1.4563366 0.35815376 255 0 0
1.6422207 1.4577248 0.35443765 255 0 0
1.6391771 1.4591131 0.35072157 255 0 0
1.6361336 1.4605013 0.34700549 255 0 0
1.63309 1.4618895 0.34328938 255 0 0
1.6300464 1.4632778 0.33957329 255 0 0
1.6270027 1.464666 0.33585721 255 0 0
1.6239592 1.4660543 0.3321411 255 0 0
1.6209157 1.4674425 0.32842499 255 0 0
1.617872 1.4688308 0.32470891 255 0 0
1.6148283 1.470219 0.32099283 255 0 0
1.6117848 1.4716073 0.31727672 255 0 0
1.6087412 1.4729955 0.31356063 255 0 0
1.6056976 1.4743837 0.30984452 255 0 0
1.602654 1.475772 0.30612844 255 0 0
1.5996104 1.4771602 0.30241233 255 0 0
1.5965668 1.4785485 0.29869625 255 0 0
1.5935233 1.4799367 0.29498017 255 0 0
1.5904796 1.481325 0.29126406 255 0 0
1.5874361 1.4827132 0.28754795 255 0 0
1.5843924 1.4841015 0.28383186 255 0 0
1.5813489 1.4854897 0.28011578 255 0 0
1.5783052 1.4868779 0.27639967 255 0 0
1.5752617 1.4882662 0.27268356 255 0 0
1.5722181 1.4896544 0.26896748 255 0 0
1.5691745 1.4910427 0.2652514 255 0 0
1.5661309 1.4924309 0.26153529 255 0 0
1.5630872 1.4938192 0.25781918 255 0 0
1.5600437 1.4952074 0.25410309 255 0 0
1.557 1.4965957 0.25038701 255 0 0
1.5539565 1.4979839 0.2466709 255 0 0
1.5509129 1.4993721 0.24295481 255 0 0
1.5478693 1.5007604 0.23923871 255 0 0
1.5448257 1.5021486 0.23552261 255 0 0
1.5417821 1.5035369 0.23180652 255 0 0
1.5387385 1.5049251 0.22809042 255 0 0
1.535695 1.5063134 0.22437432 255 0 0
1.4652853 1.3543359 0.5952794 0 255 0
1.4692488 1.3555963 0.59250402 0 255 0
1.4732122 1.3568567 0.58972871 0 255 0
1.4771757 1.3581171 0.5869534 0 255 0
1.4811392 1.3593775 0.58417809 0 255 0
1.4851027 1.3606379 0.58140272 0 255 0
1.4890661 1.3618983 0.57862741 0 255 0
1.4930295 1.3631587 0.57585204 0 255 0
1.4969929 1.3644191 0.57307673 0 255 0
1.5009564 1.3656795 0.57030141 0 255 0
1.5049199 1.3669399 0.5675261 0 255 0
1.5088834 1.3682003 0.56475073 0 255 0
1.5128468 1.3694607 0.56197542 0 255 0
1.5168103 1.3707211 0.55920011 0 255 0
1.5207738 1.3719815 0.55642474 0 255 0
1.5247372 1.3732419 0.55364943 0 255 0
1.5287006 1.3745023 0.55087411 0 255 0
1.5326641 1.3757627 0.54809874 0 255 0
1.5366275 1.3770231 0.54532343 0 255 0
1.540591 1.3782835 0.54254812 0 255 0
1.5445545 1.3795439 0.53977281 0 255 0
1.5485179 1.3808043 0.53699744 0 255 0
1.5524814 1.3820647 0.53422213 0 255 0
1.5564448 1.3833251 0.53144681 0 255 0
1.5604082 1.3845855 0.52867144 0 255 0
1.5643717 1.3858459 0.52589613 0 255 0
1.5683352 1.3871063 0.52312082 0 255 0
1.5722986 1.3883667 0.52034545 0 255 0
1.5762621 1.3896271 0.51757014 0 255 0
1.5802256 1.3908875 0.51479483 0 255 0
1.5841889 1.3921479 0.51201952 0 255 0
1.5881524 1.3934083 0.50924414 0 255 0
1.5921159 1.3946687 0.50646883 0 255 0
1.5960793 1.3959291 0.50369346 0 255 0
1.6000428 1.3971895 0.50091815 0 255 0
1.6040063 1.3984499 0.49814284 0 255 0
1.6079698 1.3997103 0.4953675 0 255 0
1.6119332 1.4009707 0.49259219 0 255 0
1.6158966 1.4022311 0.48981684 0 255 0
1.6198601 1.4034915 0.48704153 0 255 0
1.6238235 1.4047519 0.48426619 0 255 0
1.627787 1.4060123 0.48149085 0 255 0
1.6317505 1.4072727 0.47871554 0 255 0
1.6357139 1.4085331 0.4759402 0 255 0
1.6396774 1.4097935 0.47316486 0 255 0
1.6436408 1.4110539 0.47038954 0 255 0
1.6476042 1.4123143 0.4676142 0 255 0
1.6515677 1.4135747 0.46483886 0 255 0
1.6555312 1.4148351 0.46206355 0 255 0
1.6594946 1.4160955 0.45928821 0 255 0
1.6634581 1.4173559 0.45651287 0 255 0
1.6674216 1.4186163 0.45373756 0 255 0
1.671385 1.4198767 0.45096222 0 255 0
1.6753485 1.4211371 0.44818687 0 255 0
1.679312 1.4223975 0.44541156 0 255 0
1.6832753 1.4236579 0.44263622 0 255 0
1.6872388 1.4249183 0.43986091 0 255 0
1.6912023 1.4261787 0.43708557 0 255 0
1.6951658 1.4274391 0.43431023 0 255 0
1.6991292 1.4286995 0.43153492 0 255 0
1.7030926 1.4299599 0.42875957 0 255 0
1.294844 1.4320776 0.38717806 0 255 0
1.2988075 1.433338 0.38440272 0 255 0
1.302771 1.4345984 0.38162741 0 255 0
1.3067343 1.4358588 0.37885207 0 255 0
1.3106978 1.4371192 0.37607676 0 255 0
1.3146613 1.4383796 0.37330142 0 255 0
1.3186247 1.43964 0.37052608 0 255 0
1.3225882 1.4409004 0.36775076 0 255 0
1.3265517 1.4421608 0.36497542 0 255 0
1.3305151 1.4434212 0.36220008 0 255 0
1.3344786 1.4446816 0.35942477 0 255 0
1.3384421 1.445942 0.35664943 0 255 0
1.3424054 1.4472024 0.35387409 0 255 0
1.3463689 1.4484628 0.35109878 0 255 0
1.3503324 1.4497232 0.34832343 0 255 0
1.3542958 1.4509836 0.34554809 0 255 0
1.3582593 1.452244 0.34277278 0 255 0
1.3622228 1.4535044 0.33999744 0 255 0
1.3661863 1.4547648 0.3372221 0 255 0
1.3701496 1.4560252 0.33444679 0 255 0
1.3741131 1.4572856 0.33167145 0 255 0
1.3780766 1.458546 0.32889611 0 255 0
1.38204 1.4598064 0.32612079 0 255 0
1.3860035 1.4610668 0.32334548 0 255 0
1.389967 1.4623272 0.32057014 0 255 0
1.3939304 1.4635876 0.3177948 0 255 0
1.3978939 1.464848 0.31501949 0 255 0
1.4018573 1.4661084 0.31224415 0 255 0
1.4058207 1.4673688 0.30946881 0 255 0
1.4097842 1.4686292 0.30669349 0 255 0
1.4137477 1.4698896 0.30391815 0 255 0
1.4177111 1.47115 0.30114281 0 255 0
1.4216746 1.4724104 0.2983675 0 255 0
1.4256381 1.4736708 0.29559216 0 255 0
1.4296016 1.4749312 0.29281682 0 255 0
1.4335649 1.4761916 0.29004151 0 255 0
1.4375284 1.477452 0.28726619 0 255 0
1.4414918 1.4787124 0.28449082 0 255 0
