ply
format ascii 1.0
comment PCL generated
element vertex 1223
property float x
property float y
property float z
property uchar red
property uchar green
property uchar blue
element camera 0
property float view_px
property float view_py
property float view_pz
property float x_axisx
property float x_axisy
property float x_axisz
property float y_axisx
property float y_axisy
property float y_axisz
property float z_axisx
property float z_axisy
property float z_axisz
property float focal
property float scalex
property float scaley
property float centerx
property float centery
property int viewportx
property int viewporty
property float k1
property float k2
end_header
1.3143017 1.6538591 0.40202898 0 255 0
1.3142436 1.6566529 0.40312037 0 255 0
1.3141854 1.6594468 0.40421173 0 255 0
1.3141272 1.6622406 0.40530312 0 255 0
1.314069 1.6650345 0.40639448 0 255 0
1.3140109 1.6678283 0.40748587 0 255 0
1.3139526 1.6706222 0.40857723 0 255 0
1.3138944 1.673416 0.40966862 0 255 0
1.3138362 1.6762098 0.41075999 0 255 0
1.313778 1.6790037 0.41185138 0 255 0
1.3137199 1.6817975 0.41294274 0 255 0
1.3136616 1.6845914 0.41403413 0 255 0
1.3136034 1.6873852 0.41512549 0 255 0
1.3135452 1.6901791 0.41621688 0 255 0
1.3134871 1.6929729 0.41730824 0 255 0
1.3134289 1.6957667 0.41839963 0 255 0
1.3208112 1.4672567 0.32754901 0 255 0
1.320753 1.4700506 0.3286404 0 255 0
1.3206948 1.4728444 0.32973176 0 255 0
1.3206365 1.4756382 0.33082315 0 255 0
1.3205783 1.4784321 0.33191451 0 255 0
1.3205202 1.4812258 0.33300591 0 255 0
1.320462 1.4840198 0.33409727 0 255 0
1.3204038 1.4868135 0.33518866 0 255 0
1.3203456 1.4896075 0.33628002 0 255 0
1.3202875 1.4924012 0.33737141 0 255 0
1.3202292 1.495195 0.33846277 0 255 0
1.320171 1.4979889 0.33955413 0 255 0
1.3201128 1.5007827 0.34064552 0 255 0
1.3200547 1.5035766 0.34173691 0 255 0
1.3199965 1.5063704 0.34282827 0 255 0
1.3199382 1.5091643 0.34391963 0 255 0
1.31988 1.5119581 0.34501103 0 255 0
1.3198218 1.5147519 0.34610242 0 255 0
1.3197637 1.5175458 0.34719378 0 255 0
1.3197055 1.5203396 0.34828514 0 255 0
1.3196473 1.5231335 0.34937653 0 255 0
1.3195891 1.5259273 0.35046792 0 255 0
1.3195308 1.5287211 0.35155928 0 255 0
1.3194727 1.531515 0.35265064 0 255 0
1.3194145 1.5343088 0.35374203 0 255 0
1.3193563 1.5371027 0.35483339 0 255 0
1.3192981 1.5398965 0.35592479 0 255 0
1.31924 1.5426904 0.35701615 0 255 0
1.3191817 1.5454842 0.35810754 0 255 0
1.3191235 1.548278 0.3591989 0 255 0
1.3190653 1.5510719 0.36029029 0 255 0
1.3190072 1.5538657 0.36138165 0 255 0
1.318949 1.5566596 0.36247304 0 255 0
1.3188908 1.5594534 0.3635644 0 255 0
1.3188326 1.5622473 0.36465579 0 255 0
1.3187743 1.5650411 0.36574715 0 255 0
1.3187162 1.5678349 0.36683854 0 255 0
1.318658 1.5706288 0.36792991 0 255 0
1.3185998 1.5734226 0.3690213 0 255 0
1.3185416 1.5762165 0.37011266 0 255 0
1.3184835 1.5790102 0.37120405 0 255 0
1.3184252 1.5818042 0.37229541 0 255 0
1.318367 1.5845979 0.3733868 0 255 0
1.3183088 1.5873917 0.37447816 0 255 0
1.3182507 1.5901856 0.37556955 0 255 0
1.3181925 1.5929794 0.37666091 0 255 0
1.3181343 1.5957733 0.3777523 0 255 0
1.3180761 1.5985671 0.37884367 0 255 0
1.3180178 1.601361 0.37993506 0 255 0
1.3179597 1.6041548 0.38102642 0 255 0
1.3179015 1.6069486 0.38211781 0 255 0
1.3178433 1.6097425 0.38320917 0 255 0
1.3177851 1.6125363 0.38430056 0 255 0
1.3177269 1.6153302 0.38539192 0 255 0
1.3176687 1.618124 0.38648331 0 255 0
1.3176105 1.6209179 0.38757467 0 255 0
1.3175523 1.6237117 0.38866606 0 255 0
1.3174942 1.6265055 0.38975742 0 255 0
1.317436 1.6292994 0.39084882 0 255 0
1.3173778 1.6320932 0.39194018 0 255 0
1.3173195 1.6348871 0.39303157 0 255 0
1.3172613 1.6376809 0.39412293 0 255 0
1.3172032 1.6404748 0.39521432 0 255 0
1.317145 1.6432686 0.39630568 0 255 0
1.3170868 1.6460624 0.39739707 0 255 0
1.3170286 1.6488563 0.39848843 0 255 0
1.3169703 1.6516501 0.39957982 0 255 0
1.3169122 1.654444 0.40067118 0 255 0
1.316854 1.6572378 0.40176257 0 255 0
1.3167958 1.6600316 0.40285394 0 255 0
1.3167377 1.6628255 0.40394533 0 255 0
1.3166795 1.6656193 0.40503669 0 255 0
1.3166213 1.6684132 0.40612808 0 255 0
1.316563 1.671207 0.40721944 0 255 0
1.3165048 1.6740007 0.40831083 0 255 0
1.3164467 1.6767946 0.40940219 0 255 0
1.3163885 1.6795884 0.41049358 0 255 0
1.3163303 1.6823823 0.41158494 0 255 0
1.316272 1.6851761 0.41267633 0 255 0
1.3162138 1.68797 0.4137677 0 255 0
1.3161557 1.6907638 0.41485906 0 255 0
1.3160975 1.6935576 0.41595045 0 255 0
1.3160393 1.6963515 0.41704184 0 255 0
1.3234216 1.4678415 0.32619122 0 255 0
1.3233634 1.4706353 0.32728261 0 255 0
1.3233052 1.4734292 0.32837397 0 255 0
1.323247 1.476223 0.32946533 0 255 0
1.3231888 1.4790168 0.33055672 0 255 0
1.3231306 1.4818107 0.33164811 0 255 0
1.3230724 1.4846045 0.33273947 0 255 0
1.3230143 1.4873984 0.33383083 0 255 0
1.3229561 1.4901922 0.33492222 0 255 0
1.3228979 1.492986 0.33601359 0 255 0
1.3228396 1.4957799 0.33710498 0 255 0
1.3227814 1.4985737 0.33819634 0 255 0
1.3227233 1.5013676 0.33928773 0 255 0
1.3226651 1.5041614 0.34037909 0 255 0
1.3226069 1.5069553 0.34147048 0 255 0
1.3225486 1.5097491 0.34256184 0 255 0
1.3224905 1.5125428 0.34365323 0 255 0
1.3224323 1.5153368 0.34474459 0 255 0
1.3223741 1.5181305 0.34583598 0 255 0
1.3223159 1.5209244 0.34692734 0 255 0
1.3222578 1.5237182 0.34801874 0 255 0
1.3221996 1.5265121 0.3491101 0 255 0
1.3221413 1.5293059 0.35020149 0 255 0
1.3220831 1.5320997 0.35129285 0 255 0
1.3220249 1.5348936 0.35238424 0 255 0
1.3219668 1.5376874 0.3534756 0 255 0
1.3219086 1.5404813 0.35456699 0 255 0
1.3218504 1.5432751 0.35565835 0 255 0
1.3217921 1.5460689 0.35674971 0 255 0
1.321734 1.5488628 0.3578411 0 255 0
1.3216758 1.5516566 0.3589325 0 255 0
1.3216176 1.5544505 0.36002386 0 255 0
1.3215594 1.5572443 0.36111522 0 255 0
1.3215013 1.5600382 0.36220661 0 255 0
1.3214431 1.562832 0.363298 0 255 0
1.3213848 1.5656258 0.36438936 0 255 0
1.3213266 1.5684197 0.36548072 0 255 0
1.3212684 1.5712135 0.36657211 0 255 0
1.3212103 1.5740074 0.3676635 0 255 0
1.3211521 1.5768012 0.36875486 0 255 0
1.3210939 1.5795951 0.36984622 0 255 0
1.3210356 1.5823889 0.37093762 0 255 0
1.3209774 1.5851827 0.37202901 0 255 0
1.3209193 1.5879766 0.37312037 0 255 0
1.3208611 1.5907704 0.37421176 0 255 0
1.3208029 1.5935643 0.37530312 0 255 0
1.3207448 1.5963581 0.37639451 0 255 0
1.3206866 1.599152 0.37748587 0 255 0
1.3206283 1.6019458 0.37857726 0 255 0
1.3205701 1.6047395 0.37966862 0 255 0
1.3205119 1.6075335 0.38076001 0 255 0
1.3204538 1.6103272 0.38185138 0 255 0
1.3203956 1.6131212 0.38294277 0 255 0
1.3203373 1.6159149 0.38403413 0 255 0
1.3202791 1.6187088 0.38512552 0 255 0
1.3202209 1.6215026 0.38621688 0 255 0
1.3201628 1.6242964 0.38730827 0 255 0
1.3201046 1.6270903 0.38839963 0 255 0
1.3200464 1.6298841 0.38949102 0 255 0
1.3199883 1.632678 0.39058238 0 255 0
1.31993 1.6354718 0.39167374 0 255 0
1.3198718 1.6382656 0.39276513 0 255 0
1.3198136 1.6410595 0.39385653 0 255 0
1.3197554 1.6438533 0.39494789 0 255 0
1.3196973 1.6466472 0.39603925 0 255 0
1.3196391 1.649441 0.39713064 0 255 0
1.3195808 1.6522349 0.39822203 0 255 0
1.3195226 1.6550287 0.39931339 0 255 0
1.3194644 1.6578225 0.40040475 0 255 0
1.3194063 1.6606164 0.40149614 0 255 0
1.3193481 1.6634102 0.4025875 0 255 0
1.3192899 1.6662041 0.40367889 0 255 0
1.3192317 1.6689979 0.40477026 0 255 0
1.3191735 1.6717918 0.40586165 0 255 0
1.3191153 1.6745856 0.40695301 0 255 0
1.3190571 1.6773794 0.4080444 0 255 0
1.3189989 1.6801733 0.40913576 0 255 0
1.3189408 1.6829671 0.41022715 0 255 0
1.3188825 1.685761 0.41131851 0 255 0
1.3188243 1.6885548 0.4124099 0 255 0
1.3187661 1.6913486 0.41350126 0 255 0
1.3187079 1.6941425 0.41459265 0 255 0
1.3186498 1.6969362 0.41568401 0 255 0
1.326032 1.4684262 0.32483342 0 255 0
1.3259739 1.4712201 0.32592478 0 255 0
1.3259157 1.4740139 0.32701617 0 255 0
1.3258574 1.4768077 0.32810754 0 255 0
1.3257992 1.4796016 0.32919893 0 255 0
1.3257411 1.4823954 0.33029029 0 255 0
1.3256829 1.4851893 0.33138168 0 255 0
1.3256247 1.4879831 0.33247304 0 255 0
1.3255665 1.490777 0.3335644 0 255 0
1.3255084 1.4935708 0.33465579 0 255 0
1.3254501 1.4963646 0.33574718 0 255 0
1.3253919 1.4991585 0.33683854 0 255 0
1.3253337 1.5019523 0.3379299 0 255 0
1.3252755 1.5047462 0.3390213 0 255 0
1.3252174 1.50754 0.34011269 0 255 0
1.3251591 1.5103338 0.34120405 0 255 0
1.3251009 1.5131277 0.34229541 0 255 0
1.3250427 1.5159215 0.3433868 0 255 0
1.3249846 1.5187154 0.34447819 0 255 0
1.3249264 1.5215092 0.34556955 0 255 0
1.3248682 1.5243031 0.34666091 0 255 0
1.32481 1.5270969 0.3477523 0 255 0
1.3247517 1.5298907 0.34884369 0 255 0
1.3246936 1.5326846 0.34993505 0 255 0
1.3246354 1.5354784 0.35102642 0 255 0
1.3245772 1.5382723 0.35211781 0 255 0
1.324519 1.5410661 0.35320917 0 255 0
1.3244609 1.5438598 0.35430056 0 255 0
1.3244026 1.5466537 0.35539192 0 255 0
1.3243444 1.5494475 0.35648331 0 255 0
1.3242862 1.5522414 0.35757467 0 255 0
1.324228 1.5550352 0.35866606 0 255 0
1.3241699 1.5578291 0.35975742 0 255 0
1.3241117 1.5606229 0.36084881 0 255 0
1.3240535 1.5634167 0.36194018 0 255 0
1.3239952 1.5662106 0.36303157 0 255 0
1.3239371 1.5690044 0.36412293 0 255 0
1.3238789 1.5717983 0.36521432 0 255 0
1.3238207 1.5745921 0.36630568 0 255 0
1.3237625 1.577386 0.36739707 0 255 0
1.3237044 1.5801798 0.36848843 0 255 0
1.3236461 1.5829736 0.36957982 0 255 0
1.3235879 1.5857675 0.37067118 0 255 0
1.3235297 1.5885613 0.37176257 0 255 0
1.3234715 1.5913552 0.37285393 0 255 0
1.3234134 1.594149 0.37394533 0 255 0
1.3233552 1.5969429 0.37503669 0 255 0
1.323297 1.5997367 0.37612808 0 255 0
1.3232387 1.6025305 0.37721944 0 255 0
1.3231806 1.6053244 0.37831083 0 255 0
1.3231224 1.6081182 0.37940219 0 255 0
1.3230642 1.6109121 0.38049358 0 255 0
1.323006 1.6137059 0.38158494 0 255 0
1.3229477 1.6164998 0.38267633 0 255 0
1.3228896 1.6192936 0.38376769 0 255 0
1.3228314 1.6220875 0.38485909 0 255 0
1.3227732 1.6248813 0.38595045 0 255 0
1.322715 1.6276751 0.38704184 0 255 0
1.3226569 1.630469 0.3881332 0 255 0
1.3225987 1.6332628 0.38922459 0 255 0
1.3225404 1.6360567 0.39031595 0 255 0
1.3224822 1.6388505 0.39140734 0 255 0
1.3224241 1.6416442 0.3924987 0 255 0
1.3223659 1.6444381 0.39359009 0 255 0
1.3223077 1.6472319 0.39468145 0 255 0
1.3222495 1.6500258 0.39577284 0 255 0
1.3221912 1.6528196 0.39686421 0 255 0
1.3221331 1.6556134 0.3979556 0 255 0
1.3220749 1.6584073 0.39904696 0 255 0
1.3220167 1.6612011 0.40013835 0 255 0
1.3219585 1.663995 0.40122971 0 255 0
1.3219004 1.6667888 0.4023211 0 255 0
1.3218422 1.6695827 0.40341246 0 255 0
1.3217839 1.6723765 0.40450385 0 255 0
1.3217257 1.6751703 0.40559521 0 255 0
1.3216676 1.6779642 0.4066866 0 255 0
1.3216094 1.680758 0.40777797 0 255 0
1.3215512 1.6835519 0.40886936 0 255 0
1.3214929 1.6863457 0.40996072 0 255 0
1.3214347 1.6891396 0.41105211 0 255 0
1.3213766 1.6919334 0.41214347 0 255 0
1.3213184 1.6947272 0.41323483 0 255 0
1.3212602 1.6975211 0.41432622 0 255 0
1.3286425 1.4690111 0.32347563 0 255 0
1.3285843 1.4718049 0.32456699 0 255 0
1.3285261 1.4745986 0.32565838 0 255 0
1.3284678 1.4773926 0.32674974 0 255 0
1.3284097 1.4801863 0.32784113 0 255 0
1.3283515 1.4829803 0.32893249 0 255 0
1.3282933 1.485774 0.33002388 0 255 0
1.3282351 1.4885679 0.33111525 0 255 0
1.328177 1.4913617 0.33220661 0 255 0
1.3281188 1.4941555 0.333298 0 255 0
1.3280605 1.4969494 0.33438939 0 255 0
1.3280023 1.4997432 0.33548075 0 255 0
1.3279442 1.5025371 0.33657211 0 255 0
1.327886 1.5053309 0.3376635 0 255 0
1.3278278 1.5081248 0.33875489 0 255 0
1.3277695 1.5109186 0.33984625 0 255 0
1.3277113 1.5137124 0.34093761 0 255 0
1.3276532 1.5165063 0.34202901 0 255 0
1.327595 1.5193001 0.3431204 0 255 0
1.3275368 1.522094 0.34421176 0 255 0
1.3274786 1.5248878 0.34530312 0 255 0
1.3274205 1.5276816 0.34639451 0 255 0
1.3273622 1.5304755 0.3474859 0 255 0
1.327304 1.5332693 0.34857726 0 255 0
1.3272458 1.5360632 0.34966862 0 255 0
1.3271877 1.538857 0.35076001 0 255 0
1.3271295 1.5416509 0.35185137 0 255 0
1.3270713 1.5444447 0.35294276 0 255 0
1.327013 1.5472385 0.35403413 0 255 0
1.3269548 1.5500324 0.35512552 0 255 0
1.3268967 1.5528262 0.35621688 0 255 0
1.3268385 1.5556201 0.35730827 0 255 0
1.3267803 1.5584139 0.35839963 0 255 0
1.3267221 1.5612078 0.35949102 0 255 0
1.326664 1.5640016 0.36058238 0 255 0
1.3266057 1.5667953 0.36167377 0 255 0
1.3265475 1.5695893 0.36276513 0 255 0
1.3264893 1.572383 0.36385652 0 255 0
1.3264312 1.575177 0.36494789 0 255 0
1.326373 1.5779707 0.36603928 0 255 0
1.3263148 1.5807647 0.36713064 0 255 0
1.3262565 1.5835584 0.36822203 0 255 0
1.3261983 1.5863522 0.36931339 0 255 0
1.3261402 1.5891461 0.37040478 0 255 0
1.326082 1.5919399 0.37149614 0 255 0
1.3260238 1.5947338 0.37258753 0 255 0
1.3259656 1.5975276 0.37367892 0 255 0
1.3259075 1.6003215 0.37477028 0 255 0
1.3258492 1.6031153 0.37586164 0 255 0
1.325791 1.6059091 0.37695304 0 255 0
1.3257328 1.608703 0.3780444 0 255 0
1.3256747 1.6114968 0.37913579 0 255 0
1.3256165 1.6142907 0.38022715 0 255 0
1.3255582 1.6170845 0.38131854 0 255 0
1.3255 1.6198784 0.3824099 0 255 0
1.3254418 1.6226722 0.38350129 0 255 0
1.3253837 1.625466 0.38459265 0 255 0
1.3253255 1.6282599 0.38568404 0 255 0
1.3252673 1.6310537 0.3867754 0 255 0
1.3252091 1.6338476 0.3878668 0 255 0
1.3251508 1.6366414 0.38895816 0 255 0
1.3250927 1.6394352 0.39004955 0 255 0
1.3250345 1.6422291 0.39114091 0 255 0
1.3249763 1.6450229 0.3922323 0 255 0
1.3249182 1.6478168 0.39332366 0 255 0
1.32486 1.6506106 0.39441505 0 255 0
1.3248017 1.6534045 0.39550641 0 255 0
1.3247435 1.6561983 0.3965978 0 255 0
1.3246853 1.6589921 0.39768916 0 255 0
1.3246272 1.661786 0.39878055 0 255 0
1.324569 1.6645797 0.39987192 0 255 0
1.3245108 1.6673737 0.40096331 0 255 0
1.3244526 1.6701674 0.40205467 0 255 0
1.3243943 1.6729612 0.40314606 0 255 0
1.3243362 1.6757551 0.40423742 0 255 0
1.324278 1.6785489 0.40532881 0 255 0
1.3242198 1.6813428 0.40642017 0 255 0
1.3241616 1.6841366 0.40751156 0 255 0
1.3241034 1.6869305 0.40860292 0 255 0
1.3240452 1.6897243 0.40969431 0 255 0
1.323987 1.6925181 0.41078568 0 255 0
1.3239288 1.695312 0.41187704 0 255 0
1.3238707 1.6981058 0.41296843 0 255 0
1.3312529 1.4695958 0.32211781 0 255 0
1.3311948 1.4723897 0.3232092 0 255 0
1.3311366 1.4751835 0.32430059 0 255 0
1.3310784 1.4779773 0.32539195 0 255 0
1.3310201 1.4807712 0.32648331 0 255 0
1.3309619 1.483565 0.3275747 0 255 0
1.3309038 1.4863589 0.32866609 0 255 0
1.3308456 1.4891527 0.32975745 0 255 0
1.3307874 1.4919465 0.33084881 0 255 0
1.3307292 1.4947404 0.3319402 0 255 0
1.3306711 1.4975342 0.33303156 0 255 0
1.3306128 1.5003281 0.33412296 0 255 0
1.3305546 1.5031219 0.33521432 0 255 0
1.3304964 1.5059158 0.33630571 0 255 0
1.3304383 1.5087095 0.33739707 0 255 0
1.3303801 1.5115033 0.33848846 0 255 0
1.3303218 1.5142972 0.33957982 0 255 0
1.3302636 1.517091 0.34067121 0 255 0
1.3302054 1.5198849 0.34176257 0 255 0
1.3301473 1.5226787 0.34285396 0 255 0
1.3300891 1.5254726 0.34394532 0 255 0
1.3300309 1.5282664 0.34503672 0 255 0
1.3299727 1.5310602 0.34612808 0 255 0
1.3299145 1.5338541 0.34721947 0 255 0
1.3298563 1.5366479 0.34831083 0 255 0
1.3297981 1.5394418 0.34940219 0 255 0
1.3297399 1.5422356 0.35049358 0 255 0
1.3296818 1.5450294 0.35158497 0 255 0
1.3296236 1.5478233 0.35267633 0 255 0
1.3295653 1.5506171 0.35376769 0 255 0
1.3295071 1.553411 0.35485908 0 255 0
1.3294489 1.5562048 0.35595047 0 255 0
1.3293908 1.5589987 0.35704184 0 255 0
1.3293326 1.5617925 0.3581332 0 255 0
1.3292744 1.5645863 0.35922459 0 255 0
1.3292162 1.5673802 0.36031598 0 255 0
1.3291579 1.570174 0.36140734 0 255 0
1.3290998 1.5729679 0.3624987 0 255 0
1.3290416 1.5757617 0.36359009 0 255 0
1.3289834 1.5785556 0.36468148 0 255 0
1.3289253 1.5813494 0.36577284 0 255 0
1.328867 1.5841432 0.3668642 0 255 0
1.3288088 1.5869371 0.3679556 0 255 0
1.3287506 1.5897309 0.36904699 0 255 0
1.3286924 1.5925248 0.37013835 0 255 0
1.3286343 1.5953186 0.37122971 0 255 0
1.3285761 1.5981125 0.3723211 0 255 0
1.3285179 1.6009063 0.37341249 0 255 0
1.3284596 1.6037 0.37450385 0 255 0
1.3284014 1.6064939 0.37559524 0 255 0
1.3283433 1.6092877 0.3766866 0 255 0
1.3282851 1.6120816 0.37777799 0 255 0
1.3282269 1.6148754 0.37886935 0 255 0
1.3281687 1.6176693 0.37996075 0 255 0
1.3281105 1.6204631 0.38105211 0 255 0
1.3280523 1.6232569 0.3821435 0 255 0
1.3279941 1.6260508 0.38323486 0 255 0
1.3279359 1.6288446 0.38432625 0 255 0
1.3278778 1.6316385 0.38541761 0 255 0
1.3278196 1.6344323 0.386509 0 255 0
1.3277614 1.6372261 0.38760036 0 255 0
1.3277031 1.64002 0.38869172 0 255 0
1.3276449 1.6428138 0.38978311 0 255 0
1.3275868 1.6456077 0.39087451 0 255 0
1.3275286 1.6484015 0.39196587 0 255 0
1.3274704 1.6511954 0.39305723 0 255 0
1.3274121 1.6539892 0.39414862 0 255 0
1.327354 1.656783 0.39524001 0 255 0
1.3272958 1.6595769 0.39633137 0 255 0
1.3272376 1.6623707 0.39742273 0 255 0
1.3271794 1.6651646 0.39851412 0 255 0
1.3271213 1.6679584 0.39960548 0 255 0
1.3270631 1.6707523 0.40069687 0 255 0
1.3270049 1.6735461 0.40178823 0 255 0
1.3269466 1.6763399 0.40287963 0 255 0
1.3268884 1.6791338 0.40397099 0 255 0
1.3268303 1.6819276 0.40506238 0 255 0
1.3267721 1.6847215 0.40615374 0 255 0
1.3267139 1.6875153 0.40724513 0 255 0
1.3266556 1.690309 0.40833649 0 255 0
1.3265975 1.693103 0.40942788 0 255 0
1.3265393 1.6958967 0.41051924 0 255 0
1.3264811 1.6986907 0.41161063 0 255 0
1.3338634 1.4701806 0.32076001 0 255 0
1.3338052 1.4729744 0.3218514 0 255 0
1.333747 1.4757682 0.32294276 0 255 0
1.3336889 1.4785621 0.32403415 0 255 0
1.3336306 1.4813559 0.32512552 0 255 0
1.3335724 1.4841498 0.32621691 0 255 0
1.3335142 1.4869436 0.32730827 0 255 0
1.333456 1.4897375 0.32839966 0 255 0
1.3333979 1.4925313 0.32949102 0 255 0
1.3333397 1.4953251 0.33058238 0 255 0
1.3332815 1.498119 0.33167377 0 255 0
1.3332232 1.5009128 0.33276516 0 255 0
1.333165 1.5037067 0.33385652 0 255 0
1.3331069 1.5065005 0.33494788 0 255 0
1.3330487 1.5092943 0.33603927 0 255 0
1.3329905 1.5120882 0.33713067 0 255 0
1.3329322 1.514882 0.33822203 0 255 0
1.3328741 1.5176759 0.33931339 0 255 0
1.3328159 1.5204697 0.34040478 0 255 0
1.3327577 1.5232636 0.34149617 0 255 0
1.3326995 1.5260574 0.34258753 0 255 0
1.3326414 1.5288512 0.34367889 0 255 0
1.3325832 1.5316451 0.34477028 0 255 0
1.3325249 1.5344388 0.34586167 0 255 0
1.3324667 1.5372328 0.34695303 0 255 0
1.3324085 1.5400265 0.3480444 0 255 0
1.3323504 1.5428203 0.34913579 0 255 0
1.3322922 1.5456142 0.35022715 0 255 0
1.332234 1.548408 0.35131854 0 255 0
1.3321757 1.5512019 0.3524099 0 255 0
1.3321176 1.5539957 0.35350129 0 255 0
1.3320594 1.5567896 0.35459265 0 255 0
1.3320012 1.5595834 0.35568404 0 255 0
1.331943 1.5623772 0.3567754 0 255 0
1.3318849 1.5651711 0.35786679 0 255 0
1.3318267 1.5679649 0.35895815 0 255 0
1.3317684 1.5707588 0.36004955 0 255 0
1.3317102 1.5735526 0.36114091 0 255 0
1.331652 1.5763465 0.3622323 0 255 0
1.3315939 1.5791403 0.36332366 0 255 0
1.3315357 1.5819341 0.36441505 0 255 0
1.3314774 1.584728 0.36550641 0 255 0
1.3314192 1.5875218 0.3665978 0 255 0
1.3313611 1.5903157 0.36768916 0 255 0
1.3313029 1.5931095 0.36878055 0 255 0
1.3312447 1.5959034 0.36987191 0 255 0
1.3311865 1.5986972 0.37096331 0 255 0
1.3311284 1.601491 0.3720547 0 255 0
1.3310701 1.6042849 0.37314606 0 255 0
1.3310119 1.6070787 0.37423742 0 255 0
1.3309537 1.6098726 0.37532881 0 255 0
1.3308955 1.6126664 0.37642017 0 255 0
1.3308374 1.6154603 0.37751156 0 255 0
1.3307792 1.6182541 0.37860292 0 255 0
1.3307209 1.6210479 0.37969431 0 255 0
1.3306627 1.6238418 0.38078567 0 255 0
1.3306046 1.6266356 0.38187706 0 255 0
1.3305464 1.6294295 0.38296843 0 255 0
1.3304882 1.6322232 0.38405982 0 255 0
1.33043 1.6350172 0.38515118 0 255 0
1.3303719 1.6378109 0.38624257 0 255 0
1.3303136 1.6406047 0.38733393 0 255 0
1.3302554 1.6433986 0.38842532 0 255 0
1.3301972 1.6461924 0.38951668 0 255 0
1.330139 1.6489863 0.39060807 0 255 0
1.3300809 1.6517801 0.39169943 0 255 0
1.3300226 1.6545739 0.39279082 0 255 0
1.3299644 1.6573678 0.39388219 0 255 0
1.3299062 1.6601616 0.39497358 0 255 0
1.3298481 1.6629555 0.39606494 0 255 0
1.3297899 1.6657493 0.39715633 0 255 0
1.3297317 1.6685432 0.39824769 0 255 0
1.3296735 1.671337 0.39933908 0 255 0
1.3296154 1.6741308 0.40043044 0 255 0
1.3295571 1.6769247 0.40152183 0 255 0
1.3294989 1.6797185 0.40261319 0 255 0
1.3294407 1.6825124 0.40370458 0 255 0
1.3293825 1.6853062 0.40479594 0 255 0
1.3293244 1.6881001 0.40588734 0 255 0
1.3292661 1.6908939 0.4069787 0 255 0
1.3292079 1.6936877 0.40807009 0 255 0
1.3291497 1.6964816 0.40916145 0 255 0
1.3290915 1.6992754 0.41025281 0 255 0
1.3364738 1.4707654 0.31940222 0 255 0
1.3364156 1.4735591 0.32049358 0 255 0
1.3363575 1.476353 0.32158497 0 255 0
1.3362993 1.4791468 0.32267636 0 255 0
1.336241 1.4819407 0.32376772 0 255 0
1.3361828 1.4847345 0.32485908 0 255 0
1.3361247 1.4875284 0.32595047 0 255 0
1.3360665 1.4903222 0.32704186 0 255 0
1.3360083 1.493116 0.32813323 0 255 0
1.3359501 1.4959099 0.32922459 0 255 0
1.335892 1.4987037 0.33031598 0 255 0
1.3358337 1.5014976 0.33140734 0 255 0
1.3357755 1.5042914 0.33249873 0 255 0
1.3357173 1.5070853 0.33359009 0 255 0
1.3356591 1.5098791 0.33468148 0 255 0
1.335601 1.5126729 0.33577284 0 255 0
1.3355427 1.5154668 0.33686423 0 255 0
1.3354845 1.5182606 0.33795559 0 255 0
1.3354263 1.5210545 0.33904698 0 255 0
1.3353682 1.5238483 0.34013835 0 255 0
1.33531 1.5266421 0.34122974 0 255 0
1.3352518 1.529436 0.3423211 0 255 0
1.3351936 1.5322298 0.34341249 0 255 0
1.3351353 1.5350237 0.34450385 0 255 0
1.3350772 1.5378175 0.34559524 0 255 0
1.335019 1.5406114 0.3466866 0 255 0
1.3349608 1.5434052 0.34777796 0 255 0
1.3349026 1.546199 0.34886935 0 255 0
1.3348445 1.5489929 0.34996074 0 255 0
1.3347862 1.5517867 0.35105211 0 255 0
1.334728 1.5545806 0.35214347 0 255 0
1.3346698 1.5573744 0.35323486 0 255 0
1.3346117 1.5601681 0.35432625 0 255 0
1.3345535 1.5629621 0.35541761 0 255 0
1.3344953 1.5657558 0.35650897 0 255 0
1.3344371 1.5685498 0.35760036 0 255 0
1.3343788 1.5713435 0.35869175 0 255 0
1.3343207 1.5741374 0.35978311 0 255 0
1.3342625 1.5769312 0.36087447 0 255 0
1.3342043 1.579725 0.36196586 0 255 0
1.3341461 1.5825189 0.36305726 0 255 0
1.3340878 1.5853127 0.36414862 0 255 0
1.3340297 1.5881066 0.36523998 0 255 0
1.3339715 1.5909004 0.36633137 0 255 0
1.3339133 1.5936943 0.36742276 0 255 0
1.3338552 1.5964881 0.36851412 0 255 0
1.333797 1.599282 0.36960551 0 255 0
1.3337388 1.6020758 0.37069687 0 255 0
1.3336805 1.6048696 0.37178826 0 255 0
1.3336223 1.6076635 0.37287962 0 255 0
1.3335642 1.6104573 0.37397102 0 255 0
1.333506 1.6132512 0.37506238 0 255 0
1.3334478 1.616045 0.37615377 0 255 0
1.3333896 1.6188389 0.37724513 0 255 0
1.3333313 1.6216327 0.37833652 0 255 0
1.3332732 1.6244265 0.37942788 0 255 0
1.333215 1.6272204 0.38051927 0 255 0
1.3331568 1.6300142 0.38161063 0 255 0
1.3330986 1.6328081 0.38270202 0 255 0
1.3330405 1.6356019 0.38379338 0 255 0
1.3329823 1.6383957 0.38488477 0 255 0
1.332924 1.6411896 0.38597614 0 255 0
1.3328658 1.6439834 0.3870675 0 255 0
1.3328077 1.6467773 0.38815889 0 255 0
1.3327495 1.6495711 0.38925028 0 255 0
1.3326913 1.652365 0.39034164 0 255 0
1.332633 1.6551588 0.391433 0 255 0
1.3325748 1.6579525 0.39252439 0 255 0
1.3325167 1.6607465 0.39361578 0 255 0
1.3324585 1.6635402 0.39470714 0 255 0
1.3324003 1.6663342 0.3957985 0 255 0
1.3323421 1.6691279 0.3968899 0 255 0
1.332284 1.6719217 0.39798126 0 255 0
1.3322258 1.6747156 0.39907265 0 255 0
1.3321675 1.6775094 0.40016401 0 255 0
1.3321093 1.6803033 0.4012554 0 255 0
1.3320512 1.6830971 0.40234676 0 255 0
1.331993 1.6858909 0.40343815 0 255 0
1.3319348 1.6886848 0.40452951 0 255 0
1.3318765 1.6914786 0.4056209 0 255 0
1.3318183 1.6942725 0.40671226 0 255 0
1.3317602 1.6970663 0.40780365 0 255 0
1.331702 1.6998602 0.40889502 0 255 0
1.3390843 1.4713502 0.31804442 0 255 0
1.3390261 1.474144 0.31913579 0 255 0
1.3389679 1.4769378 0.32022718 0 255 0
1.3389097 1.4797317 0.32131857 0 255 0
1.3388515 1.4825255 0.32240993 0 255 0
1.3387933 1.4853194 0.32350129 0 255 0
1.3387351 1.4881132 0.32459268 0 255 0
1.3386769 1.490907 0.32568407 0 255 0
1.3386188 1.4937009 0.32677543 0 255 0
1.3385606 1.4964947 0.32786679 0 255 0
1.3385024 1.4992886 0.32895818 0 255 0
1.3384441 1.5020823 0.33004954 0 255 0
1.3383859 1.5048763 0.33114094 0 255 0
1.3383278 1.50767 0.3322323 0 255 0
1.3382696 1.5104638 0.33332369 0 255 0
1.3382114 1.5132577 0.33441505 0 255 0
1.3381531 1.5160515 0.33550644 0 255 0
1.3380949 1.5188454 0.3365978 0 255 0
1.3380368 1.5216392 0.33768919 0 255 0
1.3379786 1.5244331 0.33878055 0 255 0
1.3379204 1.5272269 0.33987194 0 255 0
1.3378623 1.5300207 0.3409633 0 255 0
1.3378041 1.5328146 0.34205469 0 255 0
1.3377458 1.5356084 0.34314606 0 255 0
1.3376876 1.5384023 0.34423745 0 255 0
1.3376294 1.5411961 0.34532881 0 255 0
1.3375713 1.5439899 0.34642017 0 255 0
1.3375131 1.5467838 0.34751156 0 255 0
1.3374549 1.5495776 0.34860295 0 255 0
1.3373966 1.5523715 0.34969431 0 255 0
1.3373384 1.5551653 0.35078567 0 255 0
1.3372803 1.5579592 0.35187706 0 255 0
1.3372221 1.560753 0.35296845 0 255 0
1.3371639 1.5635468 0.35405982 0 255 0
1.3371058 1.5663407 0.35515118 0 255 0
1.3370476 1.5691345 0.35624257 0 255 0
1.3369893 1.5719284 0.35733396 0 255 0
1.3369311 1.5747222 0.35842532 0 255 0
1.3368729 1.5775161 0.35951668 0 255 0
1.3368148 1.5803099 0.36060807 0 255 0
1.3367566 1.5831037 0.36169946 0 255 0
1.3366983 1.5858976 0.36279082 0 255 0
1.3366401 1.5886914 0.36388218 0 255 0
1.3365819 1.5914853 0.36497357 0 255 0
1.3365238 1.5942791 0.36606497 0 255 0
1.3364656 1.597073 0.36715633 0 255 0
1.3364074 1.5998667 0.36824772 0 255 0
1.3363492 1.6026605 0.36933908 0 255 0
1.336291 1.6054544 0.37043047 0 255 0
1.3362328 1.6082482 0.37152183 0 255 0
1.3361746 1.6110421 0.37261322 0 255 0
1.3361164 1.6138359 0.37370458 0 255 0
1.3360583 1.6166298 0.37479597 0 255 0
1.3360001 1.6194236 0.37588733 0 255 0
1.3359418 1.6222174 0.37697873 0 255 0
1.3358836 1.6250113 0.37807009 0 255 0
1.3358254 1.6278051 0.37916148 0 255 0
1.3357673 1.630599 0.38025284 0 255 0
1.3357091 1.6333928 0.38134423 0 255 0
1.3356509 1.6361866 0.38243559 0 255 0
1.3355927 1.6389805 0.38352698 0 255 0
1.3355345 1.6417743 0.38461834 0 255 0
1.3354763 1.6445682 0.3857097 0 255 0
1.3354181 1.647362 0.38680109 0 255 0
1.3353599 1.6501559 0.38789248 0 255 0
1.3353018 1.6529497 0.38898385 0 255 0
1.3352435 1.6557435 0.39007521 0 255 0
1.3351853 1.6585374 0.3911666 0 255 0
1.3351271 1.6613312 0.39225799 0 255 0
1.3350689 1.6641251 0.39334935 0 255 0
1.3350108 1.6669189 0.39444071 0 255 0
1.3349526 1.6697128 0.3955321 0 255 0
1.3348944 1.6725066 0.39662346 0 255 0
1.3348362 1.6753004 0.39771485 0 255 0
1.334778 1.6780943 0.39880621 0 255 0
1.3347198 1.6808881 0.39989761 0 255 0
1.3346616 1.683682 0.40098897 0 255 0
1.3346034 1.6864758 0.40208036 0 255 0
1.3345453 1.6892695 0.40317172 0 255 0
1.334487 1.6920635 0.40426311 0 255 0
1.3344288 1.6948572 0.40535447 0 255 0
1.3343706 1.6976511 0.40644586 0 255 0
1.3343124 1.7004449 0.40753722 0 255 0
1.3416947 1.4719349 0.31668663 0 255 0
1.3416365 1.4747287 0.31777799 0 255 0
1.3415784 1.4775226 0.31886938 0 255 0
1.3415202 1.4803164 0.31996074 0 255 0
1.3414619 1.4831103 0.32105213 0 255 0
1.3414037 1.4859041 0.3221435 0 255 0
1.3413455 1.488698 0.32323489 0 255 0
1.3412874 1.4914918 0.32432625 0 255 0
1.3412292 1.4942856 0.32541764 0 255 0
1.341171 1.4970795 0.326509 0 255 0
1.3411129 1.4998733 0.32760036 0 255 0
1.3410546 1.5026672 0.32869175 0 255 0
1.3409964 1.505461 0.32978314 0 255 0
1.3409382 1.5082548 0.3308745 0 255 0
1.34088 1.5110487 0.33196586 0 255 0
1.3408219 1.5138425 0.33305725 0 255 0
1.3407636 1.5166364 0.33414865 0 255 0
1.3407054 1.5194302 0.33524001 0 255 0
1.3406472 1.5222241 0.33633137 0 255 0
1.340589 1.5250179 0.33742276 0 255 0
1.3405309 1.5278116 0.33851415 0 255 0
1.3404727 1.5306056 0.33960551 0 255 0
1.3404145 1.5333993 0.34069687 0 255 0
1.3403562 1.5361933 0.34178826 0 255 0
1.3402981 1.538987 0.34287965 0 255 0
1.3402399 1.5417808 0.34397101 0 255 0
1.3401817 1.5445747 0.34506238 0 255 0
1.3401235 1.5473685 0.34615377 0 255 0
1.3400654 1.5501624 0.34724513 0 255 0
1.3400071 1.5529562 0.34833652 0 255 0
1.3399489 1.5557501 0.34942788 0 255 0
1.3398907 1.5585439 0.35051927 0 255 0
1.3398325 1.5613377 0.35161063 0 255 0
1.3397744 1.5641316 0.35270202 0 255 0
1.3397162 1.5669254 0.35379338 0 255 0
1.339658 1.5697193 0.35488477 0 255 0
1.3395997 1.5725131 0.35597613 0 255 0
1.3395416 1.575307 0.35706753 0 255 0
1.3394834 1.5781008 0.35815889 0 255 0
1.3394252 1.5808946 0.35925028 0 255 0
1.339367 1.5836885 0.36034164 0 255 0
1.3393087 1.5864823 0.36143303 0 255 0
1.3392506 1.5892762 0.36252439 0 255 0
1.3391924 1.59207 0.36361578 0 255 0
1.3391342 1.5948639 0.36470714 0 255 0
1.339076 1.5976577 0.36579853 0 255 0
1.3390179 1.6004515 0.36688989 0 255 0
1.3389597 1.6032454 0.36798128 0 255 0
1.3389014 1.6060392 0.36907268 0 255 0
1.3388432 1.6088331 0.37016404 0 255 0
1.3387851 1.6116269 0.3712554 0 255 0
1.3387269 1.6144208 0.37234679 0 255 0
1.3386687 1.6172146 0.37343818 0 255 0
1.3386105 1.6200083 0.37452954 0 255 0
1.3385522 1.6228023 0.3756209 0 255 0
1.3384941 1.625596 0.37671229 0 255 0
1.3384359 1.62839 0.37780365 0 255 0
1.3383777 1.6311837 0.37889504 0 255 0
1.3383195 1.6339777 0.37998641 0 255 0
1.3382614 1.6367714 0.3810778 0 255 0
1.3382032 1.6395652 0.38216916 0 255 0
1.3381449 1.6423591 0.38326055 0 255 0
1.3380867 1.6451529 0.38435191 0 255 0
1.3380286 1.6479468 0.3854433 0 255 0
1.3379704 1.6507406 0.38653466 0 255 0
1.3379122 1.6535344 0.38762605 0 255 0
1.3378539 1.6563283 0.38871741 0 255 0
1.3377957 1.6591221 0.3898088 0 255 0
1.3377376 1.661916 0.39090016 0 255 0
1.3376794 1.6647098 0.39199156 0 255 0
1.3376212 1.6675037 0.39308292 0 255 0
1.337563 1.6702975 0.39417431 0 255 0
1.3375049 1.6730913 0.39526567 0 255 0
1.3374467 1.6758852 0.39635706 0 255 0
1.3373884 1.678679 0.39744842 0 255 0
1.3373302 1.6814729 0.39853981 0 255 0
1.337272 1.6842667 0.39963117 0 255 0
1.3372139 1.6870606 0.40072256 0 255 0
1.3371557 1.6898544 0.40181392 0 255 0
1.3370974 1.6926482 0.40290529 0 255 0
1.3370392 1.6954421 0.40399668 0 255 0
1.3369811 1.6982359 0.40508807 0 255 0
1.3369229 1.7010298 0.40617943 0 255 0
1.3443052 1.4725196 0.31532884 0 255 0
1.344247 1.4753135 0.3164202 0 255 0
1.3441888 1.4781073 0.31751156 0 255 0
1.3441306 1.4809012 0.31860295 0 255 0
1.3440723 1.483695 0.31969434 0 255 0
1.3440142 1.4864889 0.3207857 0 255 0
1.343956 1.4892827 0.32187706 0 255 0
1.3438978 1.4920765 0.32296845 0 255 0
1.3438396 1.4948704 0.32405981 0 255 0
1.3437815 1.4976642 0.32515121 0 255 0
1.3437233 1.5004581 0.32624257 0 255 0
1.343665 1.5032519 0.32733396 0 255 0
1.3436068 1.5060458 0.32842532 0 255 0
1.3435487 1.5088396 0.32951671 0 255 0
1.3434905 1.5116334 0.33060807 0 255 0
1.3434323 1.5144273 0.33169946 0 255 0
1.343374 1.5172211 0.33279082 0 255 0
1.3433158 1.520015 0.33388221 0 255 0
1.3432577 1.5228088 0.33497357 0 255 0
1.3431995 1.5256026 0.33606496 0 255 0
1.3431413 1.5283965 0.33715633 0 255 0
1.3430831 1.5311903 0.33824772 0 255 0
1.343025 1.5339842 0.33933908 0 255 0
1.3429667 1.536778 0.34043047 0 255 0
1.3429085 1.5395719 0.34152183 0 255 0
1.3428503 1.5423657 0.34261322 0 255 0
1.3427922 1.5451595 0.34370458 0 255 0
1.342734 1.5479534 0.34479594 0 255 0
1.3426758 1.5507472 0.34588733 0 255 0
1.3426175 1.5535411 0.34697872 0 255 0
1.3425593 1.5563349 0.34807009 0 255 0
1.3425012 1.5591286 0.34916145 0 255 0
1.342443 1.5619226 0.35025284 0 255 0
1.3423848 1.5647163 0.35134423 0 255 0
1.3423266 1.5675102 0.35243559 0 255 0
1.3422685 1.570304 0.35352695 0 255 0
1.3422102 1.5730979 0.35461834 0 255 0
1.342152 1.5758917 0.35570973 0 255 0
1.3420938 1.5786855 0.35680109 0 255 0
1.3420357 1.5814794 0.35789245 0 255 0
1.3419775 1.5842732 0.35898384 0 255 0
1.3419192 1.5870671 0.36007524 0 255 0
1.341861 1.5898609 0.3611666 0 255 0
1.3418028 1.5926548 0.36225796 0 255 0
1.3417447 1.5954486 0.36334935 0 255 0
1.3416865 1.5982425 0.36444074 0 255 0
1.3416283 1.6010363 0.3655321 0 255 0
1.3415701 1.6038301 0.36662349 0 255 0
1.3415118 1.606624 0.36771485 0 255 0
1.3414537 1.6094178 0.36880624 0 255 0
1.3413955 1.6122117 0.3698976 0 255 0
1.3413373 1.6150055 0.37098899 0 255 0
1.3412791 1.6177994 0.37208036 0 255 0
1.341221 1.6205932 0.37317175 0 255 0
1.3411627 1.623387 0.37426311 0 255 0
1.3411045 1.6261809 0.3753545 0 255 0
1.3410463 1.6289747 0.37644586 0 255 0
1.3409882 1.6317686 0.37753725 0 255 0
1.34093 1.6345624 0.37862861 0 255 0
1.3408718 1.6373562 0.37972 0 255 0
1.3408136 1.6401501 0.38081136 0 255 0
1.3407553 1.6429439 0.38190275 0 255 0
1.3406972 1.6457378 0.38299412 0 255 0
1.340639 1.6485316 0.38408548 0 255 0
1.3405808 1.6513255 0.38517687 0 255 0
1.3405226 1.6541193 0.38626826 0 255 0
1.3404644 1.656913 0.38735962 0 255 0
1.3404062 1.659707 0.38845098 0 255 0
1.340348 1.6625007 0.38954237 0 255 0
1.3402898 1.6652946 0.39063373 0 255 0
1.3402317 1.6680884 0.39172512 0 255 0
1.3401735 1.6708822 0.39281648 0 255 0
1.3401153 1.6736761 0.39390787 0 255 0
1.3400571 1.6764699 0.39499924 0 255 0
1.3399988 1.6792638 0.39609063 0 255 0
1.3399407 1.6820576 0.39718199 0 255 0
1.3398825 1.6848514 0.39827338 0 255 0
1.3398243 1.6876453 0.39936474 0 255 0
1.3397661 1.6904391 0.40045613 0 255 0
1.3397079 1.693233 0.40154749 0 255 0
1.3396497 1.6960268 0.40263888 0 255 0
1.3395915 1.6988207 0.40373024 0 255 0
1.3395333 1.7016145 0.40482163 0 255 0
1.3469156 1.4731045 0.31397101 0 255 0
1.3468574 1.4758983 0.3150624 0 255 0
1.3467993 1.4786922 0.31615376 0 255 0
1.3467411 1.481486 0.31724516 0 255 0
1.3466828 1.4842799 0.31833652 0 255 0
1.3466246 1.4870737 0.31942791 0 255 0
1.3465664 1.4898674 0.32051927 0 255 0
1.3465083 1.4926614 0.32161066 0 255 0
1.3464501 1.4954551 0.32270202 0 255 0
1.3463919 1.4982491 0.32379341 0 255 0
1.3463337 1.5010428 0.32488477 0 255 0
1.3462754 1.5038368 0.32597613 0 255 0
1.3462173 1.5066305 0.32706752 0 255 0
1.3461591 1.5094243 0.32815892 0 255 0
1.3461009 1.5122182 0.32925028 0 255 0
1.3460428 1.515012 0.33034164 0 255 0
1.3459845 1.5178059 0.33143303 0 255 0
1.3459263 1.5205997 0.33252442 0 255 0
1.3458681 1.5233935 0.33361578 0 255 0
1.3458099 1.5261874 0.33470714 0 255 0
1.3457518 1.5289812 0.33579853 0 255 0
1.3456936 1.5317751 0.33688992 0 255 0
1.3456354 1.5345689 0.33798128 0 255 0
1.3455771 1.5373628 0.33907264 0 255 0
1.3455189 1.5401566 0.34016404 0 255 0
1.3454608 1.5429504 0.3412554 0 255 0
1.3454026 1.5457443 0.34234679 0 255 0
1.3453444 1.5485381 0.34343815 0 255 0
1.3452863 1.551332 0.34452954 0 255 0
1.345228 1.5541258 0.3456209 0 255 0
1.3451698 1.5569196 0.34671229 0 255 0
1.3451116 1.5597135 0.34780365 0 255 0
1.3450534 1.5625073 0.34889504 0 255 0
1.3449953 1.5653012 0.3499864 0 255 0
1.3449371 1.568095 0.3510778 0 255 0
1.3448789 1.5708889 0.35216916 0 255 0
1.3448206 1.5736827 0.35326055 0 255 0
1.3447624 1.5764766 0.35435191 0 255 0
1.3447043 1.5792704 0.3554433 0 255 0
1.3446461 1.5820642 0.35653466 0 255 0
1.3445879 1.5848581 0.35762605 0 255 0
1.3445296 1.5876518 0.35871741 0 255 0
1.3444715 1.5904458 0.3598088 0 255 0
1.3444133 1.5932395 0.36090016 0 255 0
1.3443551 1.5960335 0.36199155 0 255 0
1.3442969 1.5988272 0.36308292 0 255 0
1.3442388 1.601621 0.36417431 0 255 0
1.3441806 1.6044149 0.36526567 0 255 0
1.3441223 1.6072087 0.36635706 0 255 0
1.3440641 1.6100026 0.36744845 0 255 0
1.3440059 1.6127964 0.36853981 0 255 0
1.3439478 1.6155903 0.36963117 0 255 0
1.3438896 1.6183841 0.37072256 0 255 0
1.3438314 1.6211779 0.37181395 0 255 0
1.3437731 1.6239718 0.37290531 0 255 0
1.343715 1.6267656 0.37399668 0 255 0
1.3436568 1.6295595 0.37508807 0 255 0
1.3435986 1.6323533 0.37617943 0 255 0
1.3435404 1.6351471 0.37727082 0 255 0
1.3434823 1.637941 0.37836218 0 255 0
1.3434241 1.6407348 0.37945357 0 255 0
1.3433658 1.6435287 0.38054493 0 255 0
1.3433076 1.6463225 0.38163632 0 255 0
1.3432494 1.6491164 0.38272768 0 255 0
1.3431913 1.6519102 0.38381907 0 255 0
1.3431331 1.654704 0.38491043 0 255 0
1.3430748 1.6574979 0.38600183 0 255 0
1.3430166 1.6602917 0.38709319 0 255 0
1.3429585 1.6630856 0.38818458 0 255 0
1.3429003 1.6658794 0.38927594 0 255 0
1.3428421 1.6686733 0.39036733 0 255 0
1.3427839 1.6714671 0.39145869 0 255 0
1.3427258 1.6742609 0.39255008 0 255 0
1.3426676 1.6770548 0.39364144 0 255 0
1.3426093 1.6798486 0.39473283 0 255 0
1.3425511 1.6826425 0.39582419 0 255 0
1.3424929 1.6854362 0.39691558 0 255 0
1.3424348 1.68823 0.39800695 0 255 0
1.3423766 1.6910239 0.39909834 0 255 0
1.3423183 1.6938177 0.4001897 0 255 0
1.3422601 1.6966116 0.40128106 0 255 0
1.3422019 1.6994054 0.40237245 0 255 0
1.3421438 1.7021992 0.40346384 0 255 0
1.349526 1.4736892 0.31261322 0 255 0
1.3494679 1.4764831 0.31370461 0 255 0
1.3494097 1.4792769 0.31479597 0 255 0
1.3493515 1.4820708 0.31588736 0 255 0
1.3492932 1.4848646 0.31697872 0 255 0
1.3492351 1.4876585 0.31807011 0 255 0
1.3491769 1.4904523 0.31916147 0 255 0
1.3491187 1.4932461 0.32025287 0 255 0
1.3490605 1.49604 0.32134423 0 255 0
1.3490024 1.4988338 0.32243562 0 255 0
1.3489442 1.5016277 0.32352698 0 255 0
1.3488859 1.5044215 0.32461834 0 255 0
1.3488277 1.5072153 0.32570973 0 255 0
1.3487695 1.5100092 0.32680112 0 255 0
1.3487114 1.512803 0.32789248 0 255 0
1.3486532 1.5155969 0.32898384 0 255 0
1.3485949 1.5183907 0.33007523 0 255 0
1.3485367 1.5211846 0.33116663 0 255 0
1.3484786 1.5239784 0.33225799 0 255 0
1.3484204 1.5267721 0.33334935 0 255 0
1.3483622 1.529566 0.33444074 0 255 0
1.348304 1.5323598 0.33553213 0 255 0
1.3482459 1.5351537 0.33662349 0 255 0
1.3481876 1.5379475 0.33771485 0 255 0
1.3481294 1.5407413 0.33880624 0 255 0
1.3480712 1.5435352 0.3398976 0 255 0
1.348013 1.546329 0.34098899 0 255 0
1.3479549 1.5491229 0.34208035 0 255 0
1.3478967 1.5519167 0.34317175 0 255 0
1.3478384 1.5547106 0.34426311 0 255 0
1.3477802 1.5575044 0.3453545 0 255 0
1.3477221 1.5602982 0.34644586 0 255 0
1.3476639 1.5630921 0.34753725 0 255 0
1.3476057 1.5658859 0.34862861 0 255 0
1.3475475 1.5686798 0.34972 0 255 0
1.3474894 1.5714736 0.35081136 0 255 0
1.3474311 1.5742675 0.35190275 0 255 0
1.3473729 1.5770613 0.35299411 0 255 0
1.3473147 1.5798551 0.35408551 0 255 0
1.3472565 1.582649 0.35517687 0 255 0
1.3471984 1.5854428 0.35626826 0 255 0
1.3471401 1.5882367 0.35735962 0 255 0
1.3470819 1.5910305 0.35845101 0 255 0
1.3470237 1.5938244 0.35954237 0 255 0
1.3469656 1.5966182 0.36063376 0 255 0
1.3469074 1.599412 0.36172512 0 255 0
1.3468492 1.6022059 0.36281651 0 255 0
1.346791 1.6049997 0.36390787 0 255 0
1.3467327 1.6077936 0.36499926 0 255 0
1.3466746 1.6105874 0.36609066 0 255 0
1.3466164 1.6133813 0.36718202 0 255 0
1.3465582 1.6161751 0.36827338 0 255 0
1.3465 1.6189688 0.36936477 0 255 0
1.3464419 1.6217628 0.37045616 0 255 0
1.3463836 1.6245565 0.37154752 0 255 0
1.3463254 1.6273504 0.37263888 0 255 0
1.3462672 1.6301442 0.37373027 0 255 0
1.346209 1.6329381 0.37482163 0 255 0
1.3461509 1.6357319 0.37591302 0 255 0
1.3460927 1.6385257 0.37700438 0 255 0
1.3460345 1.6413196 0.37809578 0 255 0
1.3459762 1.6441134 0.37918714 0 255 0
1.3459181 1.6469073 0.38027853 0 255 0
1.3458599 1.6497011 0.38136989 0 255 0
1.3458017 1.6524949 0.38246128 0 255 0
1.3457435 1.6552888 0.38355264 0 255 0
1.3456852 1.6580826 0.38464403 0 255 0
1.3456271 1.6608765 0.38573539 0 255 0
1.3455689 1.6636703 0.38682678 0 255 0
1.3455107 1.6664642 0.38791814 0 255 0
1.3454525 1.669258 0.38900954 0 255 0
1.3453944 1.6720518 0.3901009 0 255 0
1.3453362 1.6748457 0.39119229 0 255 0
1.345278 1.6776395 0.39228365 0 255 0
1.3452197 1.6804334 0.39337504 0 255 0
1.3451616 1.6832272 0.3944664 0 255 0
1.3451034 1.6860211 0.39555779 0 255 0
1.3450452 1.6888149 0.39664915 0 255 0
1.344987 1.6916087 0.39774054 0 255 0
1.3449287 1.6944026 0.3988319 0 255 0
1.3448706 1.6971964 0.39992326 0 255 0
1.3448124 1.6999903 0.40101466 0 255 0
1.3447542 1.7027841 0.40210605 0 255 0
1.3521365 1.474274 0.31125543 0 255 0
1.3520783 1.4770678 0.31234682 0 255 0
1.3520201 1.4798617 0.31343818 0 255 0
1.351962 1.4826555 0.31452954 0 255 0
1.3519037 1.4854494 0.31562093 0 255 0
1.3518455 1.4882432 0.31671232 0 255 0
1.3517873 1.491037 0.31780368 0 255 0
1.3517292 1.4938309 0.31889504 0 255 0
1.351671 1.4966247 0.31998643 0 255 0
1.3516128 1.4994186 0.32107779 0 255 0
1.3515546 1.5022124 0.32216918 0 255 0
1.3514963 1.5050063 0.32326055 0 255 0
1.3514382 1.5078001 0.32435194 0 255 0
1.35138 1.5105939 0.3254433 0 255 0
1.3513218 1.5133878 0.32653469 0 255 0
1.3512636 1.5161816 0.32762605 0 255 0
1.3512053 1.5189755 0.32871744 0 255 0
1.3511472 1.5217693 0.3298088 0 255 0
1.351089 1.5245631 0.33090019 0 255 0
1.3510308 1.527357 0.33199155 0 255 0
1.3509727 1.5301508 0.33308294 0 255 0
1.3509145 1.5329447 0.33417431 0 255 0
1.3508563 1.5357385 0.3352657 0 255 0
1.350798 1.5385323 0.33635706 0 255 0
1.3507398 1.5413262 0.33744845 0 255 0
1.3506817 1.54412 0.33853981 0 255 0
1.3506235 1.5469139 0.3396312 0 255 0
1.3505653 1.5497077 0.34072256 0 255 0
1.3505071 1.5525016 0.34181392 0 255 0
1.3504488 1.5552953 0.34290531 0 255 0
1.3503907 1.5580891 0.3439967 0 255 0
1.3503325 1.560883 0.34508806 0 255 0
1.3502743 1.5636768 0.34617943 0 255 0
1.3502162 1.5664707 0.34727082 0 255 0
1.350158 1.5692645 0.34836221 0 255 0
1.3500998 1.5720584 0.34945357 0 255 0
1.3500415 1.5748522 0.35054493 0 255 0
1.3499833 1.577646 0.35163632 0 255 0
1.3499252 1.5804399 0.35272771 0 255 0
1.349867 1.5832337 0.35381907 0 255 0
1.3498088 1.5860276 0.35491043 0 255 0
1.3497505 1.5888214 0.35600182 0 255 0
1.3496923 1.5916153 0.35709321 0 255 0
1.3496342 1.5944091 0.35818458 0 255 0
1.349576 1.5972029 0.35927594 0 255 0
1.3495178 1.5999968 0.36036733 0 255 0
1.3494596 1.6027906 0.36145872 0 255 0
1.3494015 1.6055845 0.36255008 0 255 0
1.3493432 1.6083783 0.36364147 0 255 0
1.349285 1.6111722 0.36473283 0 255 0
1.3492268 1.613966 0.36582422 0 255 0
1.3491687 1.6167598 0.36691558 0 255 0
1.3491105 1.6195537 0.36800697 0 255 0
1.3490523 1.6223475 0.36909834 0 255 0
1.348994 1.6251414 0.37018973 0 255 0
1.3489358 1.6279352 0.37128109 0 255 0
1.3488777 1.6307291 0.37237245 0 255 0
1.3488195 1.6335229 0.37346384 0 255 0
1.3487613 1.6363167 0.37455523 0 255 0
1.3487031 1.6391106 0.37564659 0 255 0
1.348645 1.6419044 0.37673795 0 255 0
1.3485867 1.6446983 0.37782934 0 255 0
1.3485285 1.6474921 0.37892073 0 255 0
1.3484703 1.650286 0.38001209 0 255 0
1.3484122 1.6530797 0.38110346 0 255 0
1.348354 1.6558735 0.38219485 0 255 0
1.3482957 1.6586674 0.38328624 0 255 0
1.3482375 1.6614612 0.3843776 0 255 0
1.3481793 1.6642551 0.38546896 0 255 0
1.3481212 1.6670489 0.38656035 0 255 0
1.348063 1.6698427 0.38765171 0 255 0
1.3480048 1.6726366 0.3887431 0 255 0
1.3479466 1.6754304 0.38983446 0 255 0
1.3478885 1.6782243 0.39092585 0 255 0
1.3478302 1.6810181 0.39201722 0 255 0
1.347772 1.683812 0.39310861 0 255 0
1.3477138 1.6866058 0.39419997 0 255 0
1.3476557 1.6893996 0.39529136 0 255 0
1.3475975 1.6921935 0.39638272 0 255 0
1.3475392 1.6949873 0.39747411 0 255 0
1.347481 1.6977812 0.39856547 0 255 0
1.3474228 1.700575 0.39965686 0 255 0
1.3473647 1.7033689 0.40074822 0 255 0
1.3547469 1.4748588 0.3098976 0 255 0
1.3546888 1.4776527 0.31098899 0 255 0
1.3546306 1.4804465 0.31208038 0 255 0
1.3545724 1.4832404 0.31317174 0 255 0
1.3545141 1.4860342 0.31426314 0 255 0
1.3544559 1.4888279 0.3153545 0 255 0
1.3543978 1.4916219 0.31644589 0 255 0
1.3543396 1.4944156 0.31753725 0 255 0
1.3542814 1.4972095 0.31862861 0 255 0
1.3542233 1.5000033 0.31972 0 255 0
1.3541651 1.5027972 0.32081139 0 255 0
1.3541068 1.505591 0.32190275 0 255 0
1.3540486 1.5083848 0.32299411 0 255 0
1.3539904 1.5111787 0.3240855 0 255 0
1.3539323 1.5139725 0.32517689 0 255 0
1.3538741 1.5167664 0.32626826 0 255 0
1.3538158 1.5195602 0.32735962 0 255 0
1.3537576 1.522354 0.32845101 0 255 0
1.3536994 1.5251479 0.3295424 0 255 0
1.3536413 1.5279417 0.33063376 0 255 0
1.3535831 1.5307356 0.33172512 0 255 0
1.3535249 1.5335294 0.33281651 0 255 0
1.3534667 1.5363233 0.3339079 0 255 0
1.3534085 1.5391171 0.33499926 0 255 0
1.3533503 1.5419109 0.33609062 0 255 0
1.3532921 1.5447048 0.33718202 0 255 0
1.3532339 1.5474986 0.33827338 0 255 0
1.3531758 1.5502925 0.33936477 0 255 0
1.3531176 1.5530863 0.34045613 0 255 0
1.3530593 1.5558801 0.34154752 0 255 0
1.3530011 1.558674 0.34263888 0 255 0
1.3529429 1.5614678 0.34373027 0 255 0
1.3528848 1.5642617 0.34482163 0 255 0
1.3528266 1.5670555 0.34591302 0 255 0
1.3527684 1.5698494 0.34700438 0 255 0
1.3527102 1.5726432 0.34809577 0 255 0
1.352652 1.5754371 0.34918714 0 255 0
1.3525938 1.5782309 0.35027853 0 255 0
1.3525356 1.5810246 0.35136989 0 255 0
1.3524774 1.5838186 0.35246128 0 255 0
1.3524193 1.5866123 0.35355264 0 255 0
1.352361 1.5894063 0.35464403 0 255 0
1.3523028 1.5922 0.35573539 0 255 0
1.3522446 1.5949938 0.35682678 0 255 0
1.3521864 1.5977877 0.35791814 0 255 0
1.3521283 1.6005815 0.35900953 0 255 0
1.3520701 1.6033754 0.36010092 0 255 0
1.3520119 1.6061692 0.36119229 0 255 0
1.3519536 1.6089631 0.36228365 0 255 0
1.3518955 1.6117569 0.36337504 0 255 0
1.3518373 1.6145508 0.36446643 0 255 0
1.3517791 1.6173446 0.36555779 0 255 0
1.3517209 1.6201384 0.36664915 0 255 0
1.3516628 1.6229323 0.36774054 0 255 0
1.3516045 1.6257261 0.36883193 0 255 0
1.3515463 1.62852 0.36992329 0 255 0
1.3514881 1.6313138 0.37101465 0 255 0
1.3514299 1.6341076 0.37210605 0 255 0
1.3513718 1.6369015 0.37319741 0 255 0
1.3513136 1.6396953 0.3742888 0 255 0
1.3512554 1.6424892 0.37538016 0 255 0
1.3511971 1.645283 0.37647155 0 255 0
1.3511389 1.6480769 0.37756291 0 255 0
1.3510808 1.6508707 0.3786543 0 255 0
1.3510226 1.6536645 0.37974566 0 255 0
1.3509644 1.6564584 0.38083705 0 255 0
1.3509061 1.6592522 0.38192841 0 255 0
1.350848 1.6620461 0.3830198 0 255 0
1.3507898 1.6648399 0.38411117 0 255 0
1.3507316 1.6676338 0.38520256 0 255 0
1.3506734 1.6704276 0.38629392 0 255 0
1.3506153 1.6732213 0.38738531 0 255 0
1.3505571 1.6760153 0.38847667 0 255 0
1.3504989 1.678809 0.38956806 0 255 0
1.3504406 1.681603 0.39065942 0 255 0
1.3503824 1.6843967 0.39175081 0 255 0
1.3503243 1.6871905 0.39284217 0 255 0
1.3502661 1.6899844 0.39393353 0 255 0
1.3502079 1.6927782 0.39502493 0 255 0
1.3501496 1.6955721 0.39611632 0 255 0
1.3500915 1.6983659 0.39720768 0 255 0
1.3500333 1.7011597 0.39829904 0 255 0
1.3499751 1.7039536 0.39939043 0 255 0
1.3573574 1.4754436 0.30853981 0 255 0
1.3572992 1.4782374 0.3096312 0 255 0
1.357241 1.4810313 0.31072259 0 255 0
1.3571829 1.4838251 0.31181395 0 255 0
1.3571246 1.486619 0.31290531 0 255 0
1.3570664 1.4894128 0.3139967 0 255 0
1.3570082 1.4922066 0.31508809 0 255 0
1.35695 1.4950005 0.31617945 0 255 0
1.3568919 1.4977943 0.31727082 0 255 0
1.3568337 1.5005882 0.31836221 0 255 0
1.3567755 1.503382 0.31945357 0 255 0
1.3567172 1.5061758 0.32054496 0 255 0
1.3566591 1.5089697 0.32163632 0 255 0
1.3566009 1.5117635 0.32272771 0 255 0
1.3565427 1.5145574 0.32381907 0 255 0
1.3564845 1.5173512 0.32491046 0 255 0
1.3564262 1.5201451 0.32600182 0 255 0
1.3563681 1.5229388 0.32709321 0 255 0
1.3563099 1.5257326 0.32818457 0 255 0
1.3562517 1.5285265 0.32927597 0 255 0
1.3561935 1.5313203 0.33036733 0 255 0
1.3561354 1.5341142 0.33145872 0 255 0
1.3560772 1.536908 0.33255008 0 255 0
1.3560189 1.5397018 0.33364147 0 255 0
1.3559607 1.5424957 0.33473283 0 255 0
1.3559026 1.5452895 0.33582419 0 255 0
1.3558444 1.5480834 0.33691558 0 255 0
1.3557862 1.5508772 0.33800697 0 255 0
1.355728 1.5536711 0.33909833 0 255 0
1.3556697 1.5564649 0.3401897 0 255 0
1.3556116 1.5592587 0.34128109 0 255 0
1.3555534 1.5620526 0.34237248 0 255 0
1.3554952 1.5648464 0.34346384 0 255 0
1.355437 1.5676403 0.3445552 0 255 0
1.3553789 1.5704341 0.34564659 0 255 0
1.3553207 1.573228 0.34673798 0 255 0
1.3552624 1.5760218 0.34782934 0 255 0
1.3552042 1.5788156 0.3489207 0 255 0
1.3551461 1.5816095 0.35001209 0 255 0
1.3550879 1.5844033 0.35110348 0 255 0
1.3550297 1.5871972 0.35219485 0 255 0
1.3549714 1.589991 0.35328621 0 255 0
1.3549132 1.5927849 0.3543776 0 255 0
1.3548551 1.5955787 0.35546899 0 255 0
1.3547969 1.5983725 0.35656035 0 255 0
