ply
format ascii 1.0
comment PCL generated
element vertex 1223
property float x
property float y
property float z
property uchar red
property uchar green
property uchar blue
element camera 0
property float view_px
property float view_py
property float view_pz
property float x_axisx
property float x_axisy
property float x_axisz
property float y_axisx
property float y_axisy
property float y_axisz
property float z_axisx
property float z_axisy
property float z_axisz
property float focal
property float scalex
property float scaley
property float centerx
property float centery
property int viewportx
property int viewporty
property float k1
property float k2
end_header
1.4500555 1.474587 0.30742377 0 0 255
1.4475935 1.4761258 0.30335313 0 0 255
1.4451314 1.4776647 0.29928246 0 0 255
1.4426694 1.4792035 0.29521179 0 0 255
1.4402072 1.4807425 0.29114115 0 0 255
1.4377452 1.4822812 0.28707048 0 0 255
1.4352832 1.4838201 0.28299981 0 0 255
1.4328212 1.485359 0.27892917 0 0 255
1.4303591 1.4868978 0.27485853 0 0 255
1.4278971 1.4884367 0.27078786 0 0 255
1.5799707 1.3970795 0.51276445 0 0 255
1.5775087 1.3986183 0.50869381 0 0 255
1.5750467 1.4001572 0.50462312 0 0 255
1.5725846 1.4016961 0.50055248 0 0 255
1.5701226 1.403235 0.49648181 0 0 255
1.5676606 1.4047738 0.49241117 0 0 255
1.5651984 1.4063127 0.4883405 0 0 255
1.5627364 1.4078516 0.48426983 0 0 255
1.5602744 1.4093904 0.48019916 0 0 255
1.5578123 1.4109293 0.47612852 0 0 255
1.5553503 1.4124682 0.47205785 0 0 255
1.5528882 1.4140069 0.46798718 0 0 255
1.5504261 1.4155458 0.46391651 0 0 255
1.5479641 1.4170847 0.45984587 0 0 255
1.5455021 1.4186236 0.4557752 0 0 255
1.54304 1.4201624 0.45170453 0 0 255
1.540578 1.4217013 0.44763386 0 0 255
1.5381159 1.4232402 0.44356322 0 0 255
1.5356538 1.4247791 0.43949255 0 0 255
1.5331918 1.4263179 0.43542188 0 0 255
1.5307298 1.4278568 0.43135124 0 0 255
1.5282677 1.4293957 0.42728058 0 0 255
1.5258057 1.4309345 0.42320991 0 0 255
1.5233436 1.4324734 0.41913927 0 0 255
1.5208815 1.4340122 0.4150686 0 0 255
1.5184195 1.435551 0.41099796 0 0 255
1.5159575 1.4370899 0.40692729 0 0 255
1.5134954 1.4386288 0.40285662 0 0 255
1.5110334 1.4401677 0.39878598 0 0 255
1.5085714 1.4417065 0.39471531 0 0 255
1.5061092 1.4432454 0.39064464 0 0 255
1.5036472 1.4447843 0.386574 0 0 255
1.5011852 1.4463232 0.38250333 0 0 255
1.4987231 1.447862 0.37843266 0 0 255
1.4962611 1.4494009 0.37436199 0 0 255
1.4937991 1.4509398 0.37029135 0 0 255
1.4913369 1.4524786 0.36622068 0 0 255
1.4888749 1.4540175 0.36215004 0 0 255
1.4864129 1.4555563 0.35807937 0 0 255
1.4839509 1.4570951 0.35400873 0 0 255
1.4814888 1.458634 0.34993806 0 0 255
1.4790268 1.4601729 0.3458674 0 0 255
1.4765646 1.4617118 0.34179676 0 0 255
1.4741026 1.4632506 0.33772609 0 0 255
1.4716406 1.4647895 0.33365542 0 0 255
1.4691786 1.4663284 0.32958478 0 0 255
1.4667165 1.4678673 0.32551408 0 0 255
1.4642545 1.4694061 0.32144344 0 0 255
1.4617923 1.470945 0.31737277 0 0 255
1.4593303 1.4724839 0.3133021 0 0 255
1.4568683 1.4740227 0.30923146 0 0 255
1.4544063 1.4755616 0.30516079 0 0 255
1.4519442 1.4771004 0.30109012 0 0 255
1.4494822 1.4786392 0.29701948 0 0 255
1.4470201 1.4801781 0.29294878 0 0 255
1.444558 1.481717 0.28887814 0 0 255
1.442096 1.4832559 0.2848075 0 0 255
1.439634 1.4847947 0.28073683 0 0 255
1.4371719 1.4863336 0.27666616 0 0 255
1.4347099 1.4878725 0.27259552 0 0 255
1.4322479 1.4894114 0.26852486 0 0 255
1.5843215 1.3980541 0.51050144 0 0 255
1.5818595 1.399593 0.50643075 0 0 255
1.5793974 1.4011319 0.50236011 0 0 255
1.5769353 1.4026707 0.49828947 0 0 255
1.5744733 1.4042096 0.4942188 0 0 255
1.5720112 1.4057485 0.49014816 0 0 255
1.5695492 1.4072874 0.48607749 0 0 255
1.5670872 1.4088261 0.48200682 0 0 255
1.5646251 1.4103651 0.47793618 0 0 255
1.5621631 1.4119039 0.47386551 0 0 255
1.559701 1.4134427 0.46979484 0 0 255
1.5572389 1.4149816 0.46572417 0 0 255
1.5547769 1.4165205 0.46165353 0 0 255
1.5523149 1.4180593 0.45758286 0 0 255
1.5498528 1.4195982 0.45351219 0 0 255
1.5473907 1.4211371 0.44944155 0 0 255
1.5449287 1.422676 0.44537088 0 0 255
1.5424666 1.4242148 0.44130021 0 0 255
1.5400046 1.4257537 0.43722954 0 0 255
1.5375426 1.4272926 0.4331589 0 0 255
1.5350806 1.4288315 0.42908823 0 0 255
1.5326185 1.4303703 0.42501757 0 0 255
1.5301564 1.4319091 0.42094693 0 0 255
1.5276943 1.433448 0.41687626 0 0 255
1.5252323 1.4349868 0.41280562 0 0 255
1.5227703 1.4365257 0.40873495 0 0 255
1.5203083 1.4380646 0.40466428 0 0 255
1.5178462 1.4396034 0.40059364 0 0 255
1.5153841 1.4411423 0.39652297 0 0 255
1.512922 1.4426812 0.3924523 0 0 255
1.51046 1.4442201 0.38838166 0 0 255
1.507998 1.4457589 0.38431099 0 0 255
1.505536 1.4472978 0.38024032 0 0 255
1.5030739 1.4488367 0.37616968 0 0 255
1.5006118 1.4503756 0.37209901 0 0 255
1.4981498 1.4519143 0.36802834 0 0 255
1.4956877 1.4534532 0.3639577 0 0 255
1.4932257 1.4549921 0.35988703 0 0 255
1.4907637 1.4565309 0.35581636 0 0 255
1.4883016 1.4580698 0.35174572 0 0 255
1.4858395 1.4596087 0.34767506 0 0 255
1.4833775 1.4611475 0.34360439 0 0 255
1.4809154 1.4626864 0.33953375 0 0 255
1.4784534 1.4642253 0.33546308 0 0 255
1.4759914 1.4657642 0.33139241 0 0 255
1.4735293 1.467303 0.32732177 0 0 255
1.4710672 1.4688419 0.3232511 0 0 255
1.4686052 1.4703808 0.31918043 0 0 255
1.4661431 1.4719197 0.31510979 0 0 255
1.4636811 1.4734585 0.31103909 0 0 255
1.4612191 1.4749973 0.30696845 0 0 255
1.458757 1.4765362 0.30289778 0 0 255
1.4562949 1.478075 0.29882711 0 0 255
1.4538329 1.4796139 0.29475647 0 0 255
1.4513708 1.4811528 0.2906858 0 0 255
1.4489088 1.4826916 0.28661513 0 0 255
1.4464468 1.4842305 0.28254449 0 0 255
1.4439847 1.4857694 0.27847382 0 0 255
1.4415226 1.4873083 0.27440315 0 0 255
1.4390606 1.4888471 0.27033252 0 0 255
1.4365985 1.490386 0.26626188 0 0 255
1.5886723 1.3990288 0.50823843 0 0 255
1.5862103 1.4005677 0.5041678 0 0 255
1.5837481 1.4021065 0.50009716 0 0 255
1.5812861 1.4036454 0.49602646 0 0 255
1.578824 1.4051843 0.49195582 0 0 255
1.576362 1.406723 0.48788515 0 0 255
1.5739 1.4082619 0.48381448 0 0 255
1.571438 1.4098008 0.47974384 0 0 255
1.5689758 1.4113396 0.47567317 0 0 255
1.5665138 1.4128785 0.4716025 0 0 255
1.5640517 1.4144174 0.46753183 0 0 255
1.5615897 1.4159563 0.46346119 0 0 255
1.5591277 1.4174951 0.45939052 0 0 255
1.5566657 1.419034 0.45531985 0 0 255
1.5542035 1.4205729 0.45124918 0 0 255
1.5517415 1.4221117 0.44717854 0 0 255
1.5492795 1.4236506 0.44310787 0 0 255
1.5468174 1.4251895 0.4390372 0 0 255
1.5443554 1.4267282 0.43496656 0 0 255
1.5418934 1.4282672 0.43089589 0 0 255
1.5394312 1.429806 0.42682523 0 0 255
1.5369692 1.4313449 0.42275459 0 0 255
1.5345072 1.4328837 0.41868392 0 0 255
1.5320451 1.4344226 0.41461325 0 0 255
1.5295831 1.4359615 0.41054261 0 0 255
1.5271211 1.4375004 0.40647194 0 0 255
1.5246589 1.4390392 0.40240127 0 0 255
1.5221969 1.4405781 0.39833063 0 0 255
1.5197349 1.442117 0.39425996 0 0 255
1.5172728 1.4436558 0.39018929 0 0 255
1.5148108 1.4451947 0.38611865 0 0 255
1.5123488 1.4467336 0.38204798 0 0 255
1.5098866 1.4482725 0.37797731 0 0 255
1.5074246 1.4498112 0.37390667 0 0 255
1.5049626 1.4513501 0.369836 0 0 255
1.5025005 1.452889 0.36576533 0 0 255
1.5000385 1.4544278 0.36169469 0 0 255
1.4975765 1.4559667 0.35762402 0 0 255
1.4951144 1.4575056 0.35355335 0 0 255
1.4926523 1.4590445 0.34948272 0 0 255
1.4901903 1.4605833 0.34541205 0 0 255
1.4877282 1.4621222 0.34134138 0 0 255
1.4852662 1.4636611 0.33727074 0 0 255
1.4828042 1.4651999 0.3332001 0 0 255
1.4803421 1.4667388 0.3291294 0 0 255
1.47788 1.4682777 0.32505876 0 0 255
1.475418 1.4698164 0.32098809 0 0 255
1.4729559 1.4713553 0.31691742 0 0 255
1.4704939 1.4728942 0.31284678 0 0 255
1.4680319 1.4744331 0.30877611 0 0 255
1.4655697 1.4759719 0.30470544 0 0 255
1.4631077 1.4775108 0.3006348 0 0 255
1.4606457 1.4790497 0.2965641 0 0 255
1.4581836 1.4805886 0.29249346 0 0 255
1.4557216 1.4821274 0.28842279 0 0 255
1.4532596 1.4836663 0.28435212 0 0 255
1.4507976 1.4852052 0.28028148 0 0 255
1.4483354 1.486744 0.27621084 0 0 255
1.4458734 1.4882829 0.27214018 0 0 255
1.4434114 1.4898217 0.26806951 0 0 255
1.4409493 1.4913605 0.26399887 0 0 255
1.5930229 1.4000034 0.50597543 0 0 255
1.5905609 1.4015423 0.50190479 0 0 255
1.5880989 1.4030812 0.49783412 0 0 255
1.5856369 1.4046199 0.49376348 0 0 255
1.5831748 1.4061588 0.48969281 0 0 255
1.5807128 1.4076977 0.48562214 0 0 255
1.5782506 1.4092366 0.4815515 0 0 255
1.5757886 1.4107754 0.47748083 0 0 255
1.5733266 1.4123143 0.47341016 0 0 255
1.5708646 1.4138532 0.46933949 0 0 255
1.5684025 1.415392 0.46526885 0 0 255
1.5659405 1.4169309 0.46119818 0 0 255
1.5634784 1.4184698 0.45712751 0 0 255
1.5610163 1.4200087 0.45305687 0 0 255
1.5585543 1.4215475 0.4489862 0 0 255
1.5560923 1.4230864 0.44491553 0 0 255
1.5536302 1.4246252 0.44084486 0 0 255
1.5511682 1.4261642 0.43677419 0 0 255
1.5487061 1.4277029 0.43270355 0 0 255
1.546244 1.4292418 0.42863289 0 0 255
1.543782 1.4307806 0.42456225 0 0 255
1.54132 1.4323195 0.42049158 0 0 255
1.5388579 1.4338584 0.41642091 0 0 255
1.5363959 1.4353973 0.41235027 0 0 255
1.5339338 1.4369361 0.4082796 0 0 255
1.5314717 1.438475 0.40420893 0 0 255
1.5290097 1.4400139 0.40013829 0 0 255
1.5265477 1.4415528 0.39606762 0 0 255
1.5240856 1.4430916 0.39199698 0 0 255
1.5216236 1.4446305 0.38792631 0 0 255
1.5191615 1.4461693 0.38385564 0 0 255
1.5166994 1.4477081 0.379785 0 0 255
1.5142374 1.449247 0.37571433 0 0 255
1.5117754 1.4507859 0.37164366 0 0 255
1.5093133 1.4523247 0.36757302 0 0 255
1.5068513 1.4538636 0.36350235 0 0 255
1.5043893 1.4554025 0.35943168 0 0 255
1.5019271 1.4569414 0.35536104 0 0 255
1.4994651 1.4584802 0.35129037 0 0 255
1.4970031 1.4600191 0.34721971 0 0 255
1.494541 1.461558 0.34314907 0 0 255
1.492079 1.4630969 0.3390784 0 0 255
1.489617 1.4646357 0.33500773 0 0 255
1.4871548 1.4661746 0.33093709 0 0 255
1.4846928 1.4677134 0.32686642 0 0 255
1.4822308 1.4692522 0.32279575 0 0 255
1.4797688 1.4707911 0.31872511 0 0 255
1.4773067 1.47233 0.31465441 0 0 255
1.4748447 1.4738688 0.31058377 0 0 255
1.4723825 1.4754077 0.3065131 0 0 255
1.4699205 1.4769466 0.30244243 0 0 255
1.4674585 1.4784855 0.29837179 0 0 255
1.4649965 1.4800243 0.29430112 0 0 255
1.4625344 1.4815632 0.29023045 0 0 255
1.4600723 1.4831021 0.28615981 0 0 255
1.4576102 1.484641 0.28208911 0 0 255
1.4551482 1.4861798 0.27801847 0 0 255
1.4526862 1.4877186 0.27394783 0 0 255
1.4502242 1.4892575 0.26987717 0 0 255
1.4477621 1.4907963 0.2658065 0 0 255
1.4453001 1.4923352 0.26173586 0 0 255
1.5973737 1.4009781 0.50371242 0 0 255
1.5949117 1.4025168 0.49964178 0 0 255
1.5924497 1.4040557 0.49557111 0 0 255
1.5899876 1.4055946 0.49150047 0 0 255
1.5875256 1.4071335 0.4874298 0 0 255
1.5850635 1.4086723 0.48335916 0 0 255
1.5826014 1.4102112 0.47928849 0 0 255
1.5801394 1.4117501 0.47521782 0 0 255
1.5776774 1.413289 0.47114718 0 0 255
1.5752153 1.4148278 0.46707651 0 0 255
1.5727532 1.4163667 0.46300584 0 0 255
1.5702912 1.4179056 0.45893517 0 0 255
1.5678291 1.4194444 0.45486453 0 0 255
1.5653671 1.4209833 0.45079386 0 0 255
1.5629051 1.4225221 0.44672319 0 0 255
1.560443 1.4240609 0.44265252 0 0 255
1.5579809 1.4255998 0.43858188 0 0 255
1.5555189 1.4271387 0.43451121 0 0 255
1.5530568 1.4286776 0.43044055 0 0 255
1.5505948 1.4302164 0.42636991 0 0 255
1.5481328 1.4317553 0.42229924 0 0 255
1.5456707 1.4332942 0.41822857 0 0 255
1.5432086 1.434833 0.41415793 0 0 255
1.5407466 1.4363719 0.41008726 0 0 255
1.5382845 1.4379108 0.40601659 0 0 255
1.5358225 1.4394497 0.40194595 0 0 255
1.5333605 1.4409885 0.39787528 0 0 255
1.5308985 1.4425273 0.39380461 0 0 255
1.5284364 1.4440662 0.38973397 0 0 255
1.5259743 1.445605 0.3856633 0 0 255
1.5235122 1.4471439 0.38159263 0 0 255
1.5210502 1.4486828 0.37752199 0 0 255
1.5185882 1.4502217 0.37345132 0 0 255
1.5161262 1.4517605 0.36938065 0 0 255
1.5136641 1.4532994 0.36531001 0 0 255
1.511202 1.4548383 0.36123934 0 0 255
1.5087399 1.4563771 0.35716867 0 0 255
1.5062779 1.457916 0.35309803 0 0 255
1.5038159 1.4594549 0.34902737 0 0 255
1.5013539 1.4609938 0.3449567 0 0 255
1.4988918 1.4625325 0.34088606 0 0 255
1.4964297 1.4640714 0.33681539 0 0 255
1.4939677 1.4656103 0.33274472 0 0 255
1.4915056 1.4671491 0.32867408 0 0 255
1.4890436 1.468688 0.32460341 0 0 255
1.4865816 1.4702269 0.32053274 0 0 255
1.4841195 1.4717658 0.3164621 0 0 255
1.4816574 1.4733046 0.31239143 0 0 255
1.4791954 1.4748435 0.30832076 0 0 255
1.4767333 1.4763824 0.30425012 0 0 255
1.4742713 1.4779212 0.30017942 0 0 255
1.4718093 1.4794601 0.29610878 0 0 255
1.4693472 1.480999 0.29203814 0 0 255
1.4668851 1.4825379 0.28796744 0 0 255
1.4644231 1.4840767 0.2838968 0 0 255
1.461961 1.4856155 0.27982613 0 0 255
1.459499 1.4871544 0.27575547 0 0 255
1.457037 1.4886932 0.27168483 0 0 255
1.4545749 1.4902321 0.26761419 0 0 255
1.4521128 1.491771 0.26354352 0 0 255
1.4496508 1.4933099 0.25947285 0 0 255
1.6017245 1.4019526 0.50144947 0 0 255
1.5992625 1.4034915 0.49737877 0 0 255
1.5968003 1.4050304 0.49330813 0 0 255
1.5943383 1.4065692 0.48923746 0 0 255
1.5918763 1.4081081 0.48516682 0 0 255
1.5894142 1.409647 0.48109615 0 0 255
1.5869522 1.4111859 0.47702548 0 0 255
1.5844902 1.4127247 0.47295484 0 0 255
1.5820282 1.4142636 0.46888417 0 0 255
1.579566 1.4158025 0.4648135 0 0 255
1.577104 1.4173412 0.46074283 0 0 255
1.5746419 1.4188802 0.45667219 0 0 255
1.5721799 1.420419 0.45260152 0 0 255
1.5697179 1.4219579 0.44853085 0 0 255
1.5672557 1.4234967 0.44446018 0 0 255
1.5647937 1.4250356 0.44038954 0 0 255
1.5623317 1.4265745 0.43631887 0 0 255
1.5598696 1.4281133 0.4322482 0 0 255
1.5574076 1.4296522 0.42817754 0 0 255
1.5549456 1.4311911 0.4241069 0 0 255
1.5524836 1.43273 0.42003623 0 0 255
1.5500214 1.4342688 0.41596559 0 0 255
1.5475594 1.4358077 0.41189492 0 0 255
1.5450974 1.4373466 0.40782425 0 0 255
1.5426353 1.4388855 0.40375361 0 0 255
1.5401733 1.4404242 0.39968294 0 0 255
1.5377113 1.4419631 0.39561227 0 0 255
1.5352491 1.4435019 0.39154163 0 0 255
1.5327871 1.4450408 0.38747096 0 0 255
1.5303251 1.4465797 0.38340029 0 0 255
1.527863 1.4481186 0.37932965 0 0 255
1.525401 1.4496574 0.37525898 0 0 255
1.522939 1.4511963 0.37118834 0 0 255
1.5204768 1.4527352 0.36711767 0 0 255
1.5180148 1.4542741 0.363047 0 0 255
1.5155528 1.4558129 0.35897636 0 0 255
1.5130907 1.4573518 0.35490569 0 0 255
1.5106287 1.4588907 0.35083503 0 0 255
1.5081667 1.4604294 0.34676439 0 0 255
1.5057045 1.4619683 0.34269372 0 0 255
1.5032425 1.4635072 0.33862305 0 0 255
1.5007805 1.465046 0.33455241 0 0 255
1.4983184 1.4665849 0.33048174 0 0 255
1.4958564 1.4681238 0.32641107 0 0 255
1.4933944 1.4696627 0.32234043 0 0 255
1.4909322 1.4712015 0.31826976 0 0 255
1.4884702 1.4727404 0.31419909 0 0 255
1.4860082 1.4742793 0.31012845 0 0 255
1.4835461 1.4758182 0.30605775 0 0 255
1.4810841 1.477357 0.30198711 0 0 255
1.4786221 1.4788959 0.29791644 0 0 255
1.4761599 1.4804347 0.29384577 0 0 255
1.4736979 1.4819736 0.28977513 0 0 255
1.4712359 1.4835124 0.28570446 0 0 255
1.4687738 1.4850513 0.28163379 0 0 255
1.4663118 1.4865901 0.27756315 0 0 255
1.4638498 1.488129 0.27349249 0 0 255
1.4613876 1.4896679 0.26942182 0 0 255
1.4589256 1.4912068 0.26535118 0 0 255
1.4564636 1.4927456 0.26128054 0 0 255
1.4540015 1.4942845 0.25720987 0 0 255
1.6060752 1.4029273 0.49918643 0 0 255
1.6036131 1.4044662 0.49511579 0 0 255
1.6011511 1.406005 0.49104512 0 0 255
1.5986891 1.4075439 0.48697445 0 0 255
1.596227 1.4090828 0.48290381 0 0 255
1.593765 1.4106216 0.47883314 0 0 255
1.591303 1.4121605 0.4747625 0 0 255
1.5888408 1.4136994 0.47069183 0 0 255
1.5863788 1.4152381 0.46662116 0 0 255
1.5839168 1.416777 0.46255049 0 0 255
1.5814548 1.4183159 0.45847985 0 0 255
1.5789927 1.4198548 0.45440918 0 0 255
1.5765307 1.4213936 0.45033851 0 0 255
1.5740685 1.4229325 0.44626784 0 0 255
1.5716065 1.4244714 0.4421972 0 0 255
1.5691445 1.4260103 0.43812653 0 0 255
1.5666825 1.4275491 0.43405586 0 0 255
1.5642204 1.429088 0.42998523 0 0 255
1.5617583 1.4306269 0.42591456 0 0 255
1.5592963 1.4321657 0.42184389 0 0 255
1.5568342 1.4337046 0.41777325 0 0 255
1.5543722 1.4352434 0.41370258 0 0 255
1.5519102 1.4367822 0.40963191 0 0 255
1.5494481 1.4383211 0.40556127 0 0 255
1.5469861 1.43986 0.4014906 0 0 255
1.544524 1.4413989 0.39741993 0 0 255
1.5420619 1.4429377 0.39334929 0 0 255
1.5395999 1.4444766 0.38927862 0 0 255
1.5371379 1.4460155 0.38520795 0 0 255
1.5346758 1.4475543 0.38113731 0 0 255
1.5322138 1.4490932 0.37706664 0 0 255
1.5297517 1.4506321 0.37299597 0 0 255
1.5272896 1.452171 0.36892533 0 0 255
1.5248276 1.4537098 0.36485466 0 0 255
1.5223656 1.4552487 0.36078399 0 0 255
1.5199035 1.4567876 0.35671335 0 0 255
1.5174415 1.4583263 0.35264269 0 0 255
1.5149794 1.4598652 0.34857202 0 0 255
1.5125173 1.4614041 0.34450138 0 0 255
1.5100553 1.462943 0.34043071 0 0 255
1.5075933 1.4644818 0.33636004 0 0 255
1.5051312 1.4660207 0.3322894 0 0 255
1.5026692 1.4675596 0.32821873 0 0 255
1.5002072 1.4690984 0.32414806 0 0 255
1.497745 1.4706373 0.32007742 0 0 255
1.495283 1.4721762 0.31600675 0 0 255
1.492821 1.4737151 0.31193608 0 0 255
1.4903589 1.4752539 0.30786544 0 0 255
1.4878969 1.4767928 0.30379477 0 0 255
1.4854348 1.4783316 0.2997241 0 0 255
1.4829727 1.4798704 0.29565346 0 0 255
1.4805107 1.4814093 0.29158276 0 0 255
1.4780487 1.4829482 0.28751212 0 0 255
1.4755867 1.4844871 0.28344145 0 0 255
1.4731246 1.4860259 0.27937078 0 0 255
1.4706625 1.4875648 0.27530015 0 0 255
1.4682004 1.4891037 0.27122948 0 0 255
1.4657384 1.4906425 0.26715881 0 0 255
1.4632764 1.4921814 0.26308817 0 0 255
1.4608144 1.4937203 0.25901753 0 0 255
1.4583523 1.4952592 0.25494686 0 0 255
1.6104259 1.4039019 0.49692342 0 0 255
1.6079639 1.4054408 0.49285278 0 0 255
1.6055019 1.4069797 0.48878211 0 0 255
1.6030399 1.4085186 0.48471147 0 0 255
1.6005778 1.4100573 0.4806408 0 0 255
1.5981157 1.4115963 0.47657016 0 0 255
1.5956537 1.4131351 0.47249949 0 0 255
1.5931916 1.4146739 0.46842882 0 0 255
1.5907296 1.4162128 0.46435815 0 0 255
1.5882676 1.4177517 0.46028751 0 0 255
1.5858055 1.4192905 0.45621684 0 0 255
1.5833434 1.4208294 0.45214617 0 0 255
1.5808814 1.4223683 0.44807553 0 0 255
1.5784193 1.4239072 0.44400486 0 0 255
1.5759573 1.425446 0.43993419 0 0 255
1.5734953 1.4269849 0.43586352 0 0 255
1.5710332 1.4285238 0.43179286 0 0 255
1.5685711 1.4300627 0.42772222 0 0 255
1.5661091 1.4316015 0.42365155 0 0 255
1.563647 1.4331403 0.41958088 0 0 255
1.561185 1.4346792 0.41551024 0 0 255
1.558723 1.436218 0.41143957 0 0 255
1.5562609 1.4377569 0.40736893 0 0 255
1.5537988 1.4392958 0.40329826 0 0 255
1.5513368 1.4408346 0.39922759 0 0 255
1.5488747 1.4423735 0.39515695 0 0 255
1.5464127 1.4439124 0.39108628 0 0 255
1.5439507 1.4454513 0.38701561 0 0 255
1.5414886 1.4469901 0.38294497 0 0 255
1.5390265 1.448529 0.3788743 0 0 255
1.5365645 1.4500679 0.37480363 0 0 255
1.5341024 1.4516068 0.37073299 0 0 255
1.5316404 1.4531455 0.36666232 0 0 255
1.5291784 1.4546844 0.36259165 0 0 255
1.5267164 1.4562232 0.35852098 0 0 255
1.5242542 1.4577621 0.35445035 0 0 255
1.5217922 1.459301 0.35037971 0 0 255
1.5193301 1.4608399 0.34630904 0 0 255
1.5168681 1.4623787 0.34223837 0 0 255
1.5144061 1.4639176 0.33816773 0 0 255
1.5119441 1.4654565 0.33409706 0 0 255
1.509482 1.4669954 0.33002639 0 0 255
1.5070199 1.4685342 0.32595575 0 0 255
1.5045578 1.4700731 0.32188508 0 0 255
1.5020958 1.471612 0.31781441 0 0 255
1.4996338 1.4731507 0.31374377 0 0 255
1.4971718 1.4746897 0.30967307 0 0 255
1.4947097 1.4762285 0.30560243 0 0 255
1.4922476 1.4777673 0.30153176 0 0 255
1.4897856 1.4793062 0.29746109 0 0 255
1.4873235 1.4808451 0.29339045 0 0 255
1.4848615 1.482384 0.28931978 0 0 255
1.4823995 1.4839228 0.28524911 0 0 255
1.4799373 1.4854617 0.28117847 0 0 255
1.4774753 1.4870006 0.27710778 0 0 255
1.4750133 1.4885395 0.27303714 0 0 255
1.4725512 1.4900783 0.2689665 0 0 255
1.4700892 1.4916172 0.26489583 0 0 255
1.4676272 1.4931561 0.26082516 0 0 255
1.4651651 1.4946949 0.25675452 0 0 255
1.462703 1.4962337 0.25268388 0 0 255
1.6147767 1.4048766 0.49466044 0 0 255
1.6123147 1.4064155 0.49058977 0 0 255
1.6098527 1.4079542 0.48651913 0 0 255
1.6073905 1.4094931 0.48244846 0 0 255
1.6049285 1.411032 0.47837779 0 0 255
1.6024665 1.4125708 0.47430715 0 0 255
1.6000044 1.4141097 0.47023648 0 0 255
1.5975424 1.4156486 0.46616581 0 0 255
1.5950804 1.4171875 0.46209517 0 0 255
1.5926182 1.4187263 0.4580245 0 0 255
1.5901562 1.4202652 0.45395383 0 0 255
1.5876942 1.4218041 0.44988316 0 0 255
1.5852321 1.4233429 0.44581252 0 0 255
1.5827701 1.4248818 0.44174185 0 0 255
1.5803081 1.4264207 0.43767118 0 0 255
1.5778459 1.4279596 0.43360054 0 0 255
1.5753839 1.4294984 0.42952988 0 0 255
1.5729219 1.4310372 0.42545921 0 0 255
1.5704598 1.4325761 0.42138854 0 0 255
1.5679978 1.4341149 0.4173179 0 0 255
1.5655358 1.4356538 0.41324723 0 0 255
1.5630736 1.4371927 0.40917656 0 0 255
1.5606116 1.4387316 0.40510592 0 0 255
1.5581496 1.4402704 0.40103525 0 0 255
1.5556875 1.4418093 0.39696461 0 0 255
1.5532255 1.4433482 0.39289394 0 0 255
1.5507635 1.444887 0.38882327 0 0 255
1.5483015 1.4464259 0.38475263 0 0 255
1.5458393 1.4479648 0.38068196 0 0 255
1.5433773 1.4495037 0.37661129 0 0 255
1.5409153 1.4510424 0.37254065 0 0 255
1.5384532 1.4525813 0.36846998 0 0 255
1.5359912 1.4541202 0.36439931 0 0 255
1.5335292 1.455659 0.36032867 0 0 255
1.531067 1.4571979 0.356258 0 0 255
1.528605 1.4587368 0.35218734 0 0 255
1.526143 1.4602757 0.3481167 0 0 255
1.5236809 1.4618145 0.34404603 0 0 255
1.5212189 1.4633534 0.33997536 0 0 255
1.5187569 1.4648923 0.33590472 0 0 255
1.5162947 1.4664311 0.33183405 0 0 255
1.5138327 1.46797 0.32776338 0 0 255
1.5113707 1.4695089 0.32369274 0 0 255
1.5089086 1.4710476 0.31962207 0 0 255
1.5064466 1.4725865 0.3155514 0 0 255
1.5039846 1.4741254 0.31148076 0 0 255
1.5015224 1.4756643 0.30741009 0 0 255
1.4990604 1.4772031 0.30333942 0 0 255
1.4965984 1.478742 0.29926878 0 0 255
1.4941363 1.4802809 0.29519808 0 0 255
1.4916743 1.4818197 0.29112744 0 0 255
1.4892123 1.4833586 0.28705677 0 0 255
1.4867501 1.4848975 0.2829861 0 0 255
1.4842881 1.4864364 0.27891546 0 0 255
1.4818261 1.4879752 0.2748448 0 0 255
1.479364 1.4895141 0.27077413 0 0 255
1.476902 1.491053 0.26670349 0 0 255
1.47444 1.4925919 0.26263285 0 0 255
1.4719778 1.4941306 0.25856215 0 0 255
1.4695158 1.4956695 0.25449151 0 0 255
1.4670538 1.4972084 0.25042087 0 0 255
1.6191275 1.4058511 0.49239743 0 0 255
1.6166654 1.40739 0.48832676 0 0 255
1.6142033 1.4089289 0.48425612 0 0 255
1.6117413 1.4104677 0.48018545 0 0 255
1.6092793 1.4120066 0.47611481 0 0 255
1.6068172 1.4135455 0.47204414 0 0 255
1.6043552 1.4150844 0.4679735 0 0 255
1.6018932 1.4166232 0.46390283 0 0 255
1.599431 1.4181621 0.45983216 0 0 255
1.596969 1.419701 0.45576149 0 0 255
1.594507 1.4212399 0.45169085 0 0 255
1.5920449 1.4227787 0.44762018 0 0 255
1.5895829 1.4243176 0.44354951 0 0 255
1.5871208 1.4258564 0.43947884 0 0 255
1.5846587 1.4273953 0.43540817 0 0 255
1.5821967 1.4289341 0.43133754 0 0 255
1.5797347 1.430473 0.42726687 0 0 255
1.5772727 1.4320118 0.4231962 0 0 255
1.5748106 1.4335507 0.41912556 0 0 255
1.5723485 1.4350896 0.41505489 0 0 255
1.5698864 1.4366285 0.41098422 0 0 255
1.5674244 1.4381673 0.40691358 0 0 255
1.5649624 1.4397062 0.40284291 0 0 255
1.5625004 1.4412451 0.39877224 0 0 255
1.5600383 1.442784 0.3947016 0 0 255
1.5575762 1.4443228 0.39063093 0 0 255
1.5551142 1.4458617 0.38656026 0 0 255
1.5526521 1.4474006 0.38248962 0 0 255
1.5501901 1.4489393 0.37841895 0 0 255
1.5477281 1.4504782 0.37434828 0 0 255
1.545266 1.4520171 0.37027764 0 0 255
1.542804 1.4535559 0.36620697 0 0 255
1.5403419 1.4550948 0.3621363 0 0 255
1.5378798 1.4566337 0.35806566 0 0 255
1.5354178 1.4581726 0.353995 0 0 255
1.5329558 1.4597114 0.34992433 0 0 255
1.5304937 1.4612503 0.34585369 0 0 255
1.5280317 1.4627892 0.34178302 0 0 255
1.5255696 1.4643281 0.33771235 0 0 255
1.5231075 1.4658669 0.33364171 0 0 255
1.5206455 1.4674058 0.32957107 0 0 255
1.5181835 1.4689445 0.32550037 0 0 255
1.5157214 1.4704834 0.32142973 0 0 255
1.5132594 1.4720223 0.31735909 0 0 255
1.5107973 1.4735612 0.31328839 0 0 255
1.5083352 1.4751 0.30921775 0 0 255
1.5058732 1.4766389 0.30514708 0 0 255
1.5034112 1.4781778 0.30107641 0 0 255
1.5009491 1.4797167 0.29700577 0 0 255
1.4984871 1.4812555 0.2929351 0 0 255
1.496025 1.4827944 0.28886443 0 0 255
1.4935629 1.4843333 0.28479379 0 0 255
1.4911009 1.4858721 0.28072312 0 0 255
1.4886389 1.487411 0.27665246 0 0 255
1.4861768 1.4889498 0.27258182 0 0 255
1.4837148 1.4904888 0.26851112 0 0 255
1.4812527 1.4920275 0.26444048 0 0 255
1.4787906 1.4935664 0.26036984 0 0 255
1.4763286 1.4951053 0.25629917 0 0 255
1.4738666 1.4966441 0.2522285 0 0 255
1.4714046 1.498183 0.24815786 0 0 255
1.6234782 1.4068258 0.49013442 0 0 255
1.6210161 1.4083647 0.48606378 0 0 255
1.6185541 1.4099035 0.48199311 0 0 255
1.6160921 1.4114424 0.47792247 0 0 255
1.6136301 1.4129813 0.4738518 0 0 255
1.611168 1.4145201 0.46978116 0 0 255
1.6087059 1.416059 0.46571049 0 0 255
1.6062438 1.4175979 0.46163982 0 0 255
1.6037818 1.4191368 0.45756915 0 0 255
1.6013198 1.4206755 0.45349851 0 0 255
1.5988578 1.4222145 0.44942784 0 0 255
1.5963957 1.4237533 0.44535717 0 0 255
1.5939336 1.4252921 0.4412865 0 0 255
1.5914716 1.426831 0.43721586 0 0 255
1.5890095 1.4283699 0.4331452 0 0 255
1.5865475 1.4299088 0.42907453 0 0 255
1.5840855 1.4314476 0.42500386 0 0 255
1.5816233 1.4329865 0.42093322 0 0 255
1.5791613 1.4345254 0.41686255 0 0 255
1.5766993 1.4360642 0.41279188 0 0 255
1.5742372 1.4376031 0.40872124 0 0 255
1.5717752 1.439142 0.40465057 0 0 255
1.5693132 1.4406809 0.40057993 0 0 255
1.5668511 1.4422197 0.39650926 0 0 255
1.564389 1.4437585 0.39243859 0 0 255
1.561927 1.4452974 0.38836795 0 0 255
1.5594649 1.4468362 0.38429728 0 0 255
1.5570029 1.4483751 0.38022661 0 0 255
1.5545409 1.449914 0.37615597 0 0 255
1.5520788 1.4514529 0.3720853 0 0 255
1.5496167 1.4529917 0.36801463 0 0 255
1.5471547 1.4545306 0.36394399 0 0 255
1.5446926 1.4560695 0.35987332 0 0 255
1.5422306 1.4576083 0.35580266 0 0 255
1.5397686 1.4591472 0.35173202 0 0 255
1.5373065 1.4606861 0.34766135 0 0 255
1.5348444 1.462225 0.34359068 0 0 255
1.5323824 1.4637637 0.33952004 0 0 255
1.5299203 1.4653026 0.33544937 0 0 255
1.5274583 1.4668415 0.3313787 0 0 255
1.5249963 1.4683803 0.32730806 0 0 255
1.5225343 1.4699192 0.32323739 0 0 255
1.5200722 1.4714581 0.31916672 0 0 255
1.5176101 1.472997 0.31509608 0 0 255
1.515148 1.4745358 0.31102541 0 0 255
1.512686 1.4760747 0.30695474 0 0 255
1.510224 1.4776136 0.3028841 0 0 255
1.507762 1.4791524 0.29881343 0 0 255
1.5052998 1.4806913 0.29474276 0 0 255
1.5028378 1.4822302 0.29067212 0 0 255
1.5003757 1.4837691 0.28660142 0 0 255
1.4979137 1.4853079 0.28253078 0 0 255
1.4954517 1.4868467 0.27846012 0 0 255
1.4929897 1.4883856 0.27438945 0 0 255
1.4905275 1.4899244 0.27031881 0 0 255
1.4880655 1.4914633 0.26624814 0 0 255
1.4856035 1.4930022 0.26217747 0 0 255
1.4831414 1.494541 0.25810683 0 0 255
1.4806794 1.4960799 0.25403619 0 0 255
1.4782174 1.4976188 0.24996552 0 0 255
1.4757553 1.4991577 0.24589486 0 0 255
1.627829 1.4078004 0.48787144 0 0 255
1.6253669 1.4093393 0.48380077 0 0 255
1.6229049 1.4108782 0.4797301 0 0 255
1.6204429 1.4124171 0.47565946 0 0 255
1.6179807 1.4139559 0.47158879 0 0 255
1.6155187 1.4154948 0.46751815 0 0 255
1.6130567 1.4170337 0.46344748 0 0 255
1.6105946 1.4185724 0.45937681 0 0 255
1.6081326 1.4201113 0.45530617 0 0 255
1.6056706 1.4216502 0.4512355 0 0 255
1.6032084 1.423189 0.44716483 0 0 255
1.6007464 1.4247279 0.44309416 0 0 255
1.5982844 1.4262668 0.43902352 0 0 255
1.5958223 1.4278057 0.43495286 0 0 255
1.5933603 1.4293445 0.43088219 0 0 255
1.5908983 1.4308834 0.42681152 0 0 255
1.5884361 1.4324223 0.42274088 0 0 255
1.5859741 1.4339612 0.41867021 0 0 255
1.5835121 1.4355 0.41459954 0 0 255
1.58105 1.4370389 0.4105289 0 0 255
1.578588 1.4385778 0.40645823 0 0 255
1.576126 1.4401166 0.40238756 0 0 255
1.5736638 1.4416554 0.39831692 0 0 255
1.5712018 1.4431943 0.39424625 0 0 255
1.5687398 1.4447331 0.39017558 0 0 255
1.5662777 1.446272 0.38610494 0 0 255
1.5638157 1.4478109 0.38203427 0 0 255
1.5613537 1.4493498 0.3779636 0 0 255
1.5588915 1.4508886 0.37389296 0 0 255
1.5564295 1.4524275 0.36982229 0 0 255
1.5539675 1.4539664 0.36575162 0 0 255
1.5515054 1.4555053 0.36168098 0 0 255
1.5490434 1.4570441 0.35761032 0 0 255
1.5465814 1.458583 0.35353965 0 0 255
1.5441192 1.4601219 0.34946901 0 0 255
1.5416572 1.4616606 0.34539834 0 0 255
1.5391952 1.4631995 0.34132767 0 0 255
1.5367332 1.4647384 0.33725703 0 0 255
1.5342711 1.4662772 0.33318636 0 0 255
1.5318091 1.4678161 0.32911569 0 0 255
1.5293469 1.469355 0.32504505 0 0 255
1.5268849 1.4708939 0.32097441 0 0 255
1.5244229 1.4724327 0.31690371 0 0 255
1.5219609 1.4739716 0.31283307 0 0 255
1.5194988 1.4755105 0.30876243 0 0 255
1.5170368 1.4770494 0.30469173 0 0 255
1.5145748 1.4785882 0.30062109 0 0 255
1.5121126 1.4801271 0.29655042 0 0 255
1.5096506 1.4816658 0.29247975 0 0 255
1.5071886 1.4832048 0.28840911 0 0 255
1.5047265 1.4847436 0.28433844 0 0 255
1.5022645 1.4862825 0.28026778 0 0 255
1.4998024 1.4878213 0.27619714 0 0 255
1.4973403 1.4893602 0.27212644 0 0 255
1.4948783 1.4908991 0.2680558 0 0 255
1.4924163 1.492438 0.26398516 0 0 255
1.4899542 1.4939768 0.25991446 0 0 255
1.4874922 1.4955157 0.25584382 0 0 255
1.4850302 1.4970546 0.25177318 0 0 255
1.482568 1.4985934 0.24770251 0 0 255
1.480106 1.5001323 0.24363185 0 0 255
1.6321797 1.4087751 0.48560843 0 0 255
1.6297177 1.410314 0.48153776 0 0 255
1.6272556 1.4118528 0.47746712 0 0 255
1.6247935 1.4133917 0.47339645 0 0 255
1.6223315 1.4149306 0.46932581 0 0 255
1.6198695 1.4164693 0.46525514 0 0 255
1.6174074 1.4180082 0.46118447 0 0 255
1.6149454 1.4195471 0.45711383 0 0 255
1.6124833 1.421086 0.45304316 0 0 255
1.6100212 1.4226248 0.44897249 0 0 255
1.6075592 1.4241637 0.44490182 0 0 255
1.6050972 1.4257026 0.44083118 0 0 255
1.6026351 1.4272414 0.43676051 0 0 255
1.6001731 1.4287803 0.43268985 0 0 255
1.597711 1.4303192 0.42861921 0 0 255
1.5952489 1.4318581 0.42454854 0 0 255
1.5927869 1.4333969 0.42047787 0 0 255
1.5903249 1.4349358 0.4164072 0 0 255
1.5878628 1.4364747 0.41233656 0 0 255
1.5854008 1.4380136 0.40826589 0 0 255
1.5829387 1.4395523 0.40419522 0 0 255
1.5804766 1.4410912 0.40012458 0 0 255
1.5780146 1.4426301 0.39605391 0 0 255
1.5755526 1.4441689 0.39198324 0 0 255
1.5730906 1.4457078 0.3879126 0 0 255
1.5706285 1.4472467 0.38384193 0 0 255
1.5681665 1.4487855 0.37977129 0 0 255
1.5657043 1.4503244 0.37570062 0 0 255
1.5632423 1.4518633 0.37162995 0 0 255
1.5607803 1.4534022 0.36755931 0 0 255
1.5583183 1.454941 0.36348864 0 0 255
1.5558562 1.4564799 0.35941797 0 0 255
1.5533941 1.4580188 0.35534734 0 0 255
1.550932 1.4595575 0.35127667 0 0 255
1.54847 1.4610964 0.347206 0 0 255
1.546008 1.4626353 0.34313536 0 0 255
1.543546 1.4641742 0.33906469 0 0 255
1.5410839 1.465713 0.33499402 0 0 255
1.5386219 1.4672519 0.33092338 0 0 255
1.5361598 1.4687908 0.32685271 0 0 255
1.5336977 1.4703296 0.32278204 0 0 255
1.5312357 1.4718685 0.3187114 0 0 255
1.5287737 1.4734074 0.31464073 0 0 255
1.5263116 1.4749463 0.31057006 0 0 255
1.5238496 1.4764851 0.30649942 0 0 255
1.5213875 1.478024 0.30242875 0 0 255
1.5189254 1.4795628 0.29835808 0 0 255
1.5164634 1.4811016 0.29428744 0 0 255
1.5140014 1.4826405 0.29021674 0 0 255
1.5115393 1.4841794 0.2861461 0 0 255
1.5090773 1.4857183 0.28207543 0 0 255
1.5066152 1.4872571 0.27800477 0 0 255
1.5041531 1.488796 0.27393413 0 0 255
1.5016911 1.4903349 0.26986346 0 0 255
1.4992291 1.4918737 0.26579279 0 0 255
1.496767 1.4934126 0.26172215 0 0 255
1.494305 1.4949515 0.25765148 0 0 255
1.4918429 1.4964904 0.25358081 0 0 255
1.4893808 1.4980292 0.24951017 0 0 255
1.4869188 1.499568 0.24543951 0 0 255
1.4844568 1.5011069 0.24136886 0 0 255
1.6365304 1.4097497 0.48334542 0 0 255
1.6340684 1.4112885 0.47927478 0 0 255
1.6316063 1.4128275 0.47520411 0 0 255
1.6291443 1.4143662 0.47113347 0 0 255
1.6266823 1.4159051 0.4670628 0 0 255
1.6242203 1.417444 0.46299216 0 0 255
1.6217582 1.4189829 0.45892149 0 0 255
1.6192961 1.4205217 0.45485082 0 0 255
1.616834 1.4220606 0.45078015 0 0 255
1.614372 1.4235995 0.44670951 0 0 255
1.61191 1.4251384 0.44263884 0 0 255
1.609448 1.4266772 0.43856817 0 0 255
1.6069858 1.4282161 0.43449751 0 0 255
1.6045238 1.429755 0.43042684 0 0 255
1.6020617 1.4312938 0.4263562 0 0 255
1.5995997 1.4328327 0.42228553 0 0 255
1.5971377 1.4343715 0.41821486 0 0 255
1.5946757 1.4359103 0.41414422 0 0 255
1.5922135 1.4374492 0.41007355 0 0 255
1.5897515 1.4389881 0.40600288 0 0 255
1.5872895 1.440527 0.40193224 0 0 255
1.5848274 1.4420658 0.39786157 0 0 255
1.5823654 1.4436047 0.3937909 0 0 255
1.5799034 1.4451436 0.38972026 0 0 255
1.5774412 1.4466825 0.38564959 0 0 255
1.5749792 1.4482213 0.38157892 0 0 255
1.5725172 1.4497602 0.37750828 0 0 255
1.5700551 1.4512991 0.37343761 0 0 255
1.5675931 1.4528379 0.36936694 0 0 255
1.5651311 1.4543767 0.3652963 0 0 255
1.562669 1.4559156 0.36122563 0 0 255
1.5602069 1.4574544 0.35715497 0 0 255
1.5577449 1.4589933 0.35308433 0 0 255
1.5552828 1.4605322 0.34901366 0 0 255
1.5528208 1.4620711 0.34494299 0 0 255
1.5503588 1.4636099 0.34087235 0 0 255
1.5478967 1.4651488 0.33680168 0 0 255
1.5454346 1.4666877 0.33273101 0 0 255
1.5429726 1.4682266 0.32866037 0 0 255
1.5405105 1.4697654 0.32458973 0 0 255
1.5380485 1.4713043 0.32051903 0 0 255
1.5355865 1.4728432 0.31644839 0 0 255
1.5331244 1.4743819 0.31237775 0 0 255
1.5306623 1.4759208 0.30830705 0 0 255
1.5282003 1.4774597 0.30423641 0 0 255
1.5257382 1.4789985 0.30016574 0 0 255
1.5232762 1.4805374 0.29609507 0 0 255
1.5208142 1.4820763 0.29202443 0 0 255
1.5183522 1.4836152 0.28795376 0 0 255
1.51589 1.485154 0.28388309 0 0 255
1.513428 1.4866929 0.27981246 0 0 255
1.5109659 1.4882318 0.27574179 0 0 255
1.5085039 1.4897707 0.27167112 0 0 255
1.5060419 1.4913095 0.26760048 0 0 255
1.5035799 1.4928484 0.26352978 0 0 255
1.5011177 1.4943873 0.25945914 0 0 255
1.4986557 1.4959261 0.2553885 0 0 255
1.4961936 1.4974649 0.25131783 0 0 255
1.4937316 1.4990038 0.24724717 0 0 255
1.4912696 1.5005426 0.2431765 0 0 255
1.4888076 1.5020815 0.23910585 0 0 255
1.6408812 1.4107244 0.48108241 0 0 255
1.6384192 1.4122632 0.47701177 0 0 255
1.6359571 1.413802 0.4729411 0 0 255
1.6334951 1.4153409 0.46887046 0 0 255
1.6310331 1.4168798 0.46479979 0 0 255
1.6285709 1.4184186 0.46072915 0 0 255
1.6261089 1.4199575 0.45665848 0 0 255
1.6236469 1.4214964 0.45258781 0 0 255
1.6211848 1.4230353 0.44851714 0 0 255
1.6187228 1.4245741 0.4444465 0 0 255
1.6162608 1.426113 0.44037583 0 0 255
1.6137986 1.4276519 0.43630517 0 0 255
1.6113366 1.4291906 0.43223453 0 0 255
1.6088746 1.4307296 0.42816386 0 0 255
1.6064125 1.4322684 0.42409319 0 0 255
1.6039505 1.4338073 0.42002252 0 0 255
1.6014884 1.4353461 0.41595185 0 0 255
1.5990263 1.436885 0.41188121 0 0 255
1.5965643 1.4384239 0.40781054 0 0 255
1.5941023 1.4399627 0.40373987 0 0 255
1.5916402 1.4415016 0.39966923 0 0 255
1.5891782 1.4430405 0.39559856 0 0 255
1.5867162 1.4445794 0.39152789 0 0 255
1.584254 1.4461182 0.38745725 0 0 255
1.581792 1.4476571 0.38338658 0 0 255
1.57933 1.449196 0.37931594 0 0 255
1.5768679 1.4507349 0.37524527 0 0 255
1.5744059 1.4522736 0.3711746 0 0 255
1.5719439 1.4538125 0.36710396 0 0 255
1.5694817 1.4553514 0.36303329 0 0 255
1.5670197 1.4568902 0.35896266 0 0 255
1.5645577 1.4584291 0.35489196 0 0 255
1.5620956 1.459968 0.35082132 0 0 255
1.5596336 1.4615068 0.34675068 0 0 255
1.5571716 1.4630457 0.34267998 0 0 255
1.5547094 1.4645846 0.33860934 0 0 255
1.5522474 1.4661235 0.3345387 0 0 255
1.5497854 1.4676623 0.33046803 0 0 255
1.5473233 1.4692012 0.32639736 0 0 255
1.5448613 1.4707401 0.32232672 0 0 255
1.5423993 1.4722788 0.31825605 0 0 255
1.5399371 1.4738177 0.31418538 0 0 255
1.5374751 1.4753566 0.31011474 0 0 255
1.5350131 1.4768955 0.30604407 0 0 255
1.5325511 1.4784343 0.3019734 0 0 255
1.530089 1.4799732 0.29790276 0 0 255
1.527627 1.4815121 0.29383206 0 0 255
1.5251648 1.4830509 0.28976142 0 0 255
1.5227028 1.4845898 0.28569075 0 0 255
1.5202408 1.4861287 0.28162009 0 0 255
1.5177788 1.4876676 0.27754945 0 0 255
1.5153167 1.4892064 0.27347878 0 0 255
1.5128547 1.4907453 0.26940811 0 0 255
1.5103925 1.4922842 0.26533747 0 0 255
1.5079305 1.4938231 0.2612668 0 0 255
1.5054685 1.4953618 0.25719613 0 0 255
1.5030065 1.4969007 0.25312549 0 0 255
1.5005444 1.4984396 0.24905482 0 0 255
1.4980824 1.4999784 0.24498416 0 0 255
1.4956203 1.5015173 0.24091351 0 0 255
1.4931582 1.5030562 0.23684286 0 0 255
1.645232 1.4116989 0.47881943 0 0 255
1.6427699 1.4132378 0.47474876 0 0 255
1.6403079 1.4147767 0.47067812 0 0 255
1.6378458 1.4163156 0.46660745 0 0 255
1.6353837 1.4178544 0.46253678 0 0 255
1.6329217 1.4193933 0.45846614 0 0 255
1.6304597 1.4209322 0.45439547 0 0 255
1.6279976 1.422471 0.45032483 0 0 255
1.6255356 1.4240099 0.44625416 0 0 255
1.6230735 1.4255488 0.44218349 0 0 255
1.6206114 1.4270875 0.43811283 0 0 255
1.6181494 1.4286264 0.43404216 0 0 255
1.6156874 1.4301653 0.42997152 0 0 255
1.6132253 1.4317042 0.42590085 0 0 255
1.6107633 1.433243 0.42183018 0 0 255
1.6083012 1.4347819 0.41775954 0 0 255
1.6058391 1.4363208 0.41368887 0 0 255
1.6033771 1.4378597 0.4096182 0 0 255
1.6009151 1.4393985 0.40554753 0 0 255
1.598453 1.4409374 0.40147689 0 0 255
1.595991 1.4424763 0.39740622 0 0 255
1.5935289 1.4440151 0.39333558 0 0 255
1.5910668 1.445554 0.38926491 0 0 255
1.5886048 1.4470929 0.38519424 0 0 255
1.5861428 1.4486318 0.3811236 0 0 255
1.5836807 1.4501705 0.37705293 0 0 255
1.5812187 1.4517094 0.37298226 0 0 255
1.5787566 1.4532483 0.36891162 0 0 255
1.5762945 1.4547871 0.36484095 0 0 255
1.5738325 1.456326 0.36077029 0 0 255
1.5713705 1.4578649 0.35669965 0 0 255
1.5689085 1.4594038 0.35262898 0 0 255
1.5664464 1.4609426 0.34855831 0 0 255
1.5639843 1.4624815 0.34448767 0 0 255
1.5615222 1.4640204 0.340417 0 0 255
1.5590602 1.4655592 0.33634633 0 0 255
1.5565982 1.4670981 0.33227569 0 0 255
1.5541362 1.468637 0.32820502 0 0 255
1.5516741 1.4701757 0.32413435 0 0 255
1.5492121 1.4717146 0.32006371 0 0 255
1.5467499 1.4732535 0.31599304 0 0 255
1.5442879 1.4747924 0.31192237 0 0 255
1.5418259 1.4763312 0.30785173 0 0 255
1.5393639 1.4778701 0.30378106 0 0 255
1.5369018 1.479409 0.29971039 0 0 255
1.5344398 1.4809479 0.29563975 0 0 255
1.5319777 1.4824867 0.29156908 0 0 255
1.5295156 1.4840256 0.28749841 0 0 255
1.5270536 1.4855645 0.28342777 0 0 255
1.5245916 1.4871033 0.27935708 0 0 255
1.5221295 1.4886422 0.27528644 0 0 255
1.5196675 1.490181 0.27121577 0 0 255
1.5172054 1.4917198 0.2671451 0 0 255
1.5147433 1.4932587 0.26307446 0 0 255
1.5122813 1.4947976 0.25900379 0 0 255
1.5098193 1.4963365 0.25493312 0 0 255
1.5073572 1.4978753 0.25086248 0 0 255
1.5048952 1.4994142 0.24679182 0 0 255
1.5024331 1.5009531 0.24272116 0 0 255
1.499971 1.502492 0.2386505 0 0 255
1.497509 1.5040308 0.23457985 0 0 255
1.6495827 1.4126736 0.47655642 0 0 255
1.6471207 1.4142125 0.47248575 0 0 255
1.6446586 1.4157513 0.46841511 0 0 255
1.6421965 1.4172902 0.46434444 0 0 255
1.6397345 1.4188291 0.4602738 0 0 255
1.6372725 1.420368 0.45620313 0 0 255
1.6348104 1.4219067 0.45213246 0 0 255
1.6323483 1.4234457 0.44806182 0 0 255
1.6298863 1.4249845 0.44399115 0 0 255
1.6274242 1.4265233 0.43992049 0 0 255
1.6249622 1.4280622 0.43584985 0 0 255
1.6225002 1.4296011 0.43177918 0 0 255
1.6200382 1.4311399 0.42770851 0 0 255
1.617576 1.4326788 0.42363784 0 0 255
1.615114 1.4342177 0.41956717 0 0 255
1.6126519 1.4357566 0.41549653 0 0 255
1.6101899 1.4372954 0.41142586 0 0 255
1.6077279 1.4388343 0.40735519 0 0 255
1.6052659 1.4403732 0.40328455 0 0 255
1.6028037 1.4419121 0.39921388 0 0 255
1.6003417 1.4434509 0.39514321 0 0 255
1.5978796 1.4449897 0.39107257 0 0 255
1.5954176 1.4465286 0.3870019 0 0 255
1.5929556 1.4480674 0.38293123 0 0 255
1.5904936 1.4496063 0.37886059 0 0 255
1.5880314 1.4511452 0.37478992 0 0 255
1.5855694 1.452684 0.37071925 0 0 255
1.5831074 1.4542229 0.36664861 0 0 255
1.5806453 1.4557618 0.36257794 0 0 255
1.5781833 1.4573007 0.35850728 0 0 255
1.5757213 1.4588395 0.35443664 0 0 255
1.5732591 1.4603784 0.35036597 0 0 255
1.5707971 1.4619173 0.3462953 0 0 255
1.5683351 1.4634562 0.34222466 0 0 255
1.565873 1.464995 0.33815399 0 0 255
1.563411 1.4665339 0.33408332 0 0 255
1.560949 1.4680727 0.33001268 0 0 255
1.5584869 1.4696115 0.32594201 0 0 255
1.5560248 1.4711504 0.32187134 0 0 255
1.5535628 1.4726893 0.3178007 0 0 255
1.5511007 1.4742281 0.31373006 0 0 255
1.5486387 1.475767 0.30965936 0 0 255
1.5461767 1.4773059 0.30558872 0 0 255
1.5437146 1.4788448 0.30151808 0 0 255
1.5412525 1.4803836 0.29744738 0 0 255
1.5387905 1.4819225 0.29337674 0 0 255
1.5363284 1.4834614 0.28930607 0 0 255
1.5338664 1.4850003 0.2852354 0 0 255
1.5314044 1.4865391 0.28116477 0 0 255
1.5289423 1.4880779 0.2770941 0 0 255
1.5264802 1.4896168 0.27302343 0 0 255
1.5240182 1.4911556 0.26895279 0 0 255
1.5215561 1.4926945 0.26488212 0 0 255
1.5190941 1.4942334 0.26081145 0 0 255
1.5166321 1.4957722 0.25674081 0 0 255
1.5141701 1.4973111 0.25267011 0 0 255
1.5117079 1.49885 0.24859947 0 0 255
1.5092459 1.5003889 0.24452882 0 0 255
1.5067838 1.5019277 0.24045816 0 0 255
1.5043218 1.5034666 0.23638751 0 0 255
1.5018598 1.5050055 0.23231685 0 0 255
1.6539334 1.4136482 0.47429341 0 0 255
1.6514714 1.4151871 0.47022277 0 0 255
1.6490093 1.416726 0.4661521 0 0 255
1.6465473 1.4182649 0.46208146 0 0 255
1.6440853 1.4198036 0.45801079 0 0 255
1.6416233 1.4213425 0.45394012 0 0 255
1.6391611 1.4228814 0.44986948 0 0 255
1.6366991 1.4244202 0.44579881 0 0 255
1.6342371 1.4259591 0.44172814 0 0 255
1.631775 1.427498 0.43765748 0 0 255
1.629313 1.4290369 0.43358684 0 0 255
1.6268508 1.4305757 0.42951617 0 0 255
1.6243888 1.4321146 0.4254455 0 0 255
1.6219268 1.4336535 0.42137486 0 0 255
1.6194648 1.4351923 0.41730419 0 0 255
1.6170027 1.4367312 0.41323352 0 0 255
1.6145407 1.4382701 0.40916285 0 0 255
1.6120787 1.439809 0.40509218 0 0 255
1.6096165 1.4413478 0.40102154 0 0 255
1.6071545 1.4428866 0.39695087 0 0 255
1.6046925 1.4444255 0.39288023 0 0 255
1.6022304 1.4459643 0.38880956 0 0 255
1.5997684 1.4475032 0.38473889 0 0 255
1.5973063 1.4490421 0.38066825 0 0 255
1.5948442 1.450581 0.37659758 0 0 255
1.5923822 1.4521198 0.37252694 0 0 255
1.5899202 1.4536587 0.36845627 0 0 255
1.5874581 1.4551976 0.3643856 0 0 255
1.5849961 1.4567364 0.36031497 0 0 255
1.5825341 1.4582753 0.3562443 0 0 255
1.5800719 1.4598142 0.35217363 0 0 255
1.5776099 1.4613531 0.34810299 0 0 255
1.5751479 1.4628918 0.34403232 0 0 255
1.5726858 1.4644307 0.33996165 0 0 255
1.5702238 1.4659696 0.33589101 0 0 255
1.5677618 1.4675084 0.33182034 0 0 255
1.5652996 1.4690473 0.32774967 0 0 255
1.5628376 1.4705862 0.32367903 0 0 255
1.5603756 1.4721251 0.31960836 0 0 255
1.5579135 1.4736639 0.31553769 0 0 255
1.5554515 1.4752028 0.31146705 0 0 255
1.5529895 1.4767417 0.30739638 0 0 255
1.5505273 1.4782805 0.30332571 0 0 255
1.5480653 1.4798194 0.29925507 0 0 255
1.5456033 1.4813583 0.2951844 0 0 255
1.5431412 1.482897 0.29111373 0 0 255
1.5406792 1.4844359 0.28704309 0 0 255
1.5382172 1.4859748 0.2829724 0 0 255
1.535755 1.4875137 0.27890176 0 0 255
1.533293 1.4890525 0.27483109 0 0 255
1.530831 1.4905914 0.27076042 0 0 255
1.5283689 1.4921303 0.26668978 0 0 255
1.5259069 1.4936692 0.26261911 0 0 255
1.5234449 1.495208 0.25854844 0 0 255
1.5209827 1.4967469 0.2544778 0 0 255
1.5185207 1.4982858 0.25040713 0 0 255
1.5160587 1.4998246 0.24633648 0 0 255
1.5135967 1.5013635 0.24226582 0 0 255
1.5111346 1.5029024 0.23819515 0 0 255
1.5086726 1.5044413 0.2341245 0 0 255
1.5062106 1.50598 0.23005384 0 0 255
1.6582842 1.4146229 0.4720304 0 0 255
1.6558222 1.4161618 0.46795976 0 0 255
1.6533601 1.4177005 0.46388909 0 0 255
1.6508981 1.4192394 0.45981845 0 0 255
1.6484361 1.4207783 0.45574778 0 0 255
1.6459739 1.4223171 0.45167714 0 0 255
1.6435119 1.423856 0.44760647 0 0 255
1.6410499 1.4253949 0.4435358 0 0 255
1.6385878 1.4269338 0.43946517 0 0 255
1.6361258 1.4284726 0.4353945 0 0 255
1.6336637 1.4300115 0.43132383 0 0 255
1.6312016 1.4315504 0.42725316 0 0 255
1.6287396 1.4330893 0.42318249 0 0 255
1.6262776 1.4346281 0.41911185 0 0 255
1.6238155 1.436167 0.41504118 0 0 255
1.6213535 1.4377059 0.41097051 0 0 255
1.6188914 1.4392447 0.40689987 0 0 255
1.6164293 1.4407835 0.4028292 0 0 255
1.6139673 1.4423224 0.39875853 0 0 255
1.6115053 1.4438612 0.39468789 0 0 255
1.6090432 1.4454001 0.39061722 0 0 255
1.6065812 1.446939 0.38654655 0 0 255
1.6041191 1.4484779 0.38247591 0 0 255
1.601657 1.4500167 0.37840524 0 0 255
1.599195 1.4515556 0.37433457 0 0 255
1.596733 1.4530945 0.37026393 0 0 255
1.5942709 1.4546334 0.36619326 0 0 255
1.5918089 1.4561722 0.3621226 0 0 255
1.5893469 1.4577111 0.35805196 0 0 255
1.5868847 1.45925 0.35398129 0 0 255
1.5844227 1.4607887 0.34991062 0 0 255
1.5819607 1.4623276 0.34583998 0 0 255
1.5794986 1.4638665 0.34176931 0 0 255
1.5770366 1.4654053 0.33769864 0 0 255
1.5745745 1.4669442 0.333628 0 0 255
1.5721124 1.4684831 0.32955733 0 0 255
1.5696504 1.470022 0.32548666 0 0 255
1.5671884 1.4715608 0.32141602 0 0 255
1.5647264 1.4730997 0.31734535 0 0 255
1.5622643 1.4746386 0.31327468 0 0 255
1.5598023 1.4761775 0.30920404 0 0 255
1.5573401 1.4777163 0.30513337 0 0 255
1.5548781 1.4792552 0.3010627 0 0 255
1.5524161 1.480794 0.29699206 0 0 255
1.5499541 1.4823328 0.29292139 0 0 255
1.547492 1.4838717 0.28885072 0 0 255
1.54503 1.4854106 0.28478009 0 0 255
1.5425678 1.4869494 0.28070942 0 0 255
1.5401058 1.4884883 0.27663875 0 0 255
1.5376438 1.4900272 0.27256811 0 0 255
1.5351818 1.4915661 0.26849741 0 0 255
1.5327197 1.4931049 0.26442677 0 0 255
1.5302577 1.4946438 0.26035613 0 0 255
1.5277956 1.4961827 0.25628543 0 0 255
1.5253335 1.4977216 0.25221479 0 0 255
1.5228715 1.4992604 0.24814412 0 0 255
1.5204095 1.5007993 0.24407347 0 0 255
1.5179474 1.5023382 0.24000281 0 0 255
1.5154854 1.5038769 0.23593216 0 0 255
1.5130233 1.5054158 0.2318615 0 0 255
1.5105612 1.5069547 0.22779085 0 0 255
1.662635 1.4155974 0.46976742 0 0 255
1.6601729 1.4171363 0.46569675 0 0 255
1.6577108 1.4186752 0.46162611 0 0 255
1.6552488 1.4202141 0.45755544 0 0 255
1.6527867 1.4217529 0.45348477 0 0 255
1.6503247 1.4232918 0.44941413 0 0 255
1.6478627 1.4248307 0.44534346 0 0 255
1.6454006 1.4263695 0.4412728 0 0 255
1.6429386 1.4279084 0.43720216 0 0 255
1.6404765 1.4294473 0.43313149 0 0 255
1.6380144 1.4309862 0.42906082 0 0 255
1.6355524 1.432525 0.42499018 0 0 255
1.6330904 1.4340639 0.42091951 0 0 255
1.6306283 1.4356027 0.41684884 0 0 255
1.6281662 1.4371415 0.41277817 0 0 255
1.6257042 1.4386804 0.4087075 0 0 255
1.6232421 1.4402193 0.40463686 0 0 255
1.6207801 1.4417582 0.40056619 0 0 255
1.6183181 1.443297 0.39649552 0 0 255
1.6158561 1.4448359 0.39242488 0 0 255
1.6133939 1.4463748 0.38835421 0 0 255
1.6109319 1.4479136 0.38428354 0 0 255
1.6084698 1.4494525 0.3802129 0 0 255
1.6060078 1.4509914 0.37614223 0 0 255
1.6035458 1.4525303 0.37207156 0 0 255
1.6010838 1.4540691 0.36800092 0 0 255
1.5986216 1.455608 0.36393026 0 0 255
1.5961596 1.4571469 0.35985959 0 0 255
1.5936975 1.4586856 0.35578895 0 0 255
1.5912355 1.4602245 0.35171828 0 0 255
1.5887735 1.4617634 0.34764761 0 0 255
1.5863115 1.4633023 0.34357697 0 0 255
1.5838494 1.4648411 0.3395063 0 0 255
1.5813873 1.46638 0.33543563 0 0 255
1.5789253 1.4679189 0.33136499 0 0 255
1.5764632 1.4694577 0.32729435 0 0 255
1.5740012 1.4709966 0.32322365 0 0 255
1.5715392 1.4725355 0.31915301 0 0 255
1.5690771 1.4740744 0.31508237 0 0 255
1.566615 1.4756132 0.31101167 0 0 255
1.564153 1.4771521 0.30694103 0 0 255
1.5616909 1.4786909 0.30287039 0 0 255
1.5592289 1.4802297 0.29879972 0 0 255
1.5567669 1.4817686 0.29472905 0 0 255
1.5543048 1.4833075 0.29065841 0 0 255
1.5518427 1.4848464 0.28658772 0 0 255
1.5493807 1.4863852 0.28251708 0 0 255
1.5469186 1.4879241 0.27844641 0 0 255
1.5444566 1.489463 0.27437574 0 0 255
1.5419946 1.4910018 0.2703051 0 0 255
1.5395325 1.4925407 0.26623443 0 0 255
1.5370704 1.4940796 0.26216376 0 0 255
1.5346084 1.4956185 0.25809312 0 0 255
1.5321463 1.4971573 0.25402245 0 0 255
