ply
format ascii 1.0
comment PCL generated
element vertex 1224
property float x
property float y
property float z
property uchar red
property uchar green
property uchar blue
element camera 0
property float view_px
property float view_py
property float view_pz
property float x_axisx
property float x_axisy
property float x_axisz
property float y_axisx
property float y_axisy
property float y_axisz
property float z_axisx
property float z_axisy
property float z_axisz
property float focal
property float scalex
property float scaley
property float centerx
property float centery
property int viewportx
property int viewporty
property float k1
property float k2
end_header
1.6217906 1.7204815 0.56673861 0 0 255
1.6193286 1.7220204 0.56266791 0 0 255
1.6168666 1.7235591 0.55859727 0 0 255
1.6144046 1.7250981 0.55452663 0 0 255
1.6119425 1.7266369 0.55045593 0 0 255
1.6094804 1.7281758 0.54638529 0 0 255
1.6070184 1.7297146 0.54231459 0 0 255
1.6045563 1.7312535 0.53824395 0 0 255
1.6020943 1.7327924 0.53417331 0 0 255
1.5996323 1.7343313 0.53010261 0 0 255
1.5971702 1.7358701 0.52603197 0 0 255
1.5947081 1.737409 0.52196133 0 0 255
1.5922461 1.7389479 0.51789063 0 0 255
1.589784 1.7404867 0.51381999 0 0 255
1.587322 1.7420256 0.50974929 0 0 255
1.58486 1.7435645 0.50567865 0 0 255
1.5823979 1.7451034 0.50160801 0 0 255
1.5799358 1.7466421 0.49753734 0 0 255
1.5774738 1.7481811 0.49346671 0 0 255
1.5750117 1.7497199 0.48939604 0 0 255
1.7270855 1.6583626 0.73137265 0 0 255
1.7246234 1.6599015 0.72730196 0 0 255
1.7221614 1.6614404 0.72323132 0 0 255
1.7196994 1.6629792 0.71916068 0 0 255
1.7172372 1.6645181 0.71509004 0 0 255
1.7147752 1.666057 0.71101934 0 0 255
1.7123132 1.6675959 0.7069487 0 0 255
1.7098511 1.6691347 0.702878 0 0 255
1.7073891 1.6706736 0.69880736 0 0 255
1.7049271 1.6722124 0.69473672 0 0 255
1.7024649 1.6737512 0.69066602 0 0 255
1.7000029 1.6752901 0.68659538 0 0 255
1.6975409 1.676829 0.68252474 0 0 255
1.6950788 1.6783679 0.67845404 0 0 255
1.6926168 1.6799067 0.6743834 0 0 255
1.6901548 1.6814456 0.67031276 0 0 255
1.6876926 1.6829845 0.66624206 0 0 255
1.6852306 1.6845233 0.66217142 0 0 255
1.6827686 1.6860622 0.65810072 0 0 255
1.6803066 1.6876011 0.65403008 0 0 255
1.6778445 1.68914 0.64995944 0 0 255
1.6753824 1.6906788 0.64588875 0 0 255
1.6729203 1.6922177 0.64181811 0 0 255
1.6704583 1.6937566 0.63774747 0 0 255
1.6679963 1.6952953 0.63367677 0 0 255
1.6655343 1.6968343 0.62960613 0 0 255
1.6630722 1.6983731 0.62553549 0 0 255
1.6606101 1.699912 0.62146485 0 0 255
1.6581481 1.7014508 0.61739415 0 0 255
1.655686 1.7029897 0.61332351 0 0 255
1.653224 1.7045286 0.60925281 0 0 255
1.650762 1.7060674 0.60518217 0 0 255
1.6482999 1.7076063 0.60111153 0 0 255
1.6458378 1.7091452 0.59704089 0 0 255
1.6433758 1.7106841 0.59297019 0 0 255
1.6409137 1.7122229 0.58889955 0 0 255
1.6384517 1.7137618 0.58482885 0 0 255
1.6359897 1.7153007 0.58075821 0 0 255
1.6335275 1.7168396 0.57668757 0 0 255
1.6310655 1.7183783 0.57261693 0 0 255
1.6286035 1.7199173 0.56854624 0 0 255
1.6261414 1.7214561 0.5644756 0 0 255
1.6236794 1.7229949 0.56040496 0 0 255
1.6212174 1.7245338 0.55633426 0 0 255
1.6187553 1.7260727 0.55226362 0 0 255
1.6162932 1.7276115 0.54819292 0 0 255
1.6138312 1.7291504 0.54412228 0 0 255
1.6113691 1.7306893 0.54005164 0 0 255
1.6089071 1.7322282 0.53598094 0 0 255
1.6064451 1.733767 0.5319103 0 0 255
1.6039829 1.7353059 0.52783966 0 0 255
1.6015209 1.7368448 0.52376896 0 0 255
1.5990589 1.7383837 0.51969832 0 0 255
1.5965968 1.7399225 0.51562762 0 0 255
1.5941348 1.7414614 0.51155698 0 0 255
1.5916728 1.7430003 0.50748634 0 0 255
1.5892106 1.744539 0.5034157 0 0 255
1.5867486 1.746078 0.499345 0 0 255
1.5842866 1.7476168 0.49527436 0 0 255
1.5818245 1.7491556 0.4912037 0 0 255
1.5793625 1.7506945 0.48713306 0 0 255
1.7314363 1.6593373 0.72910964 0 0 255
1.7289741 1.6608762 0.72503901 0 0 255
1.7265121 1.662415 0.72096831 0 0 255
1.72405 1.6639539 0.71689767 0 0 255
1.721588 1.6654928 0.71282703 0 0 255
1.719126 1.6670315 0.70875633 0 0 255
1.716664 1.6685704 0.70468569 0 0 255
1.7142019 1.6701093 0.70061505 0 0 255
1.7117398 1.6716481 0.69654435 0 0 255
1.7092777 1.673187 0.69247371 0 0 255
1.7068157 1.6747259 0.68840307 0 0 255
1.7043537 1.6762648 0.68433237 0 0 255
1.7018917 1.6778036 0.68026173 0 0 255
1.6994295 1.6793425 0.67619109 0 0 255
1.6969675 1.6808814 0.67212039 0 0 255
1.6945055 1.6824203 0.66804975 0 0 255
1.6920434 1.6839591 0.66397905 0 0 255
1.6895814 1.685498 0.65990841 0 0 255
1.6871194 1.6870369 0.65583777 0 0 255
1.6846572 1.6885757 0.65176708 0 0 255
1.6821952 1.6901146 0.64769644 0 0 255
1.6797332 1.6916535 0.6436258 0 0 255
1.6772711 1.6931922 0.6395551 0 0 255
1.6748091 1.6947311 0.63548446 0 0 255
1.6723471 1.69627 0.63141382 0 0 255
1.6698849 1.6978089 0.62734312 0 0 255
1.6674229 1.6993477 0.62327248 0 0 255
1.6649609 1.7008866 0.61920184 0 0 255
1.6624988 1.7024255 0.61513114 0 0 255
1.6600368 1.7039644 0.6110605 0 0 255
1.6575747 1.7055032 0.60698986 0 0 255
1.6551126 1.7070421 0.60291916 0 0 255
1.6526506 1.708581 0.59884852 0 0 255
1.6501886 1.7101198 0.59477788 0 0 255
1.6477265 1.7116587 0.59070718 0 0 255
1.6452645 1.7131976 0.58663654 0 0 255
1.6428025 1.7147365 0.5825659 0 0 255
1.6403403 1.7162752 0.5784952 0 0 255
1.6378783 1.7178141 0.57442456 0 0 255
1.6354163 1.719353 0.57035393 0 0 255
1.6329542 1.7208918 0.56628323 0 0 255
1.6304922 1.7224307 0.56221259 0 0 255
1.6280302 1.7239696 0.55814195 0 0 255
1.625568 1.7255085 0.55407125 0 0 255
1.623106 1.7270473 0.55000061 0 0 255
1.620644 1.7285862 0.54592997 0 0 255
1.6181819 1.7301251 0.54185927 0 0 255
1.6157199 1.7316639 0.53778863 0 0 255
1.6132579 1.7332028 0.53371799 0 0 255
1.6107957 1.7347417 0.52964729 0 0 255
1.6083337 1.7362806 0.52557665 0 0 255
1.6058717 1.7378194 0.52150595 0 0 255
1.6034096 1.7393582 0.51743531 0 0 255
1.6009476 1.7408972 0.51336467 0 0 255
1.5984855 1.7424359 0.50929403 0 0 255
1.5960234 1.7439748 0.50522333 0 0 255
1.5935614 1.7455137 0.50115263 0 0 255
1.5910994 1.7470526 0.49708202 0 0 255
1.5886374 1.7485914 0.49301136 0 0 255
1.5861753 1.7501303 0.48894072 0 0 255
1.5837132 1.7516692 0.48487005 0 0 255
1.7357869 1.6603119 0.72684664 0 0 255
1.7333249 1.6618508 0.722776 0 0 255
1.7308629 1.6633897 0.7187053 0 0 255
1.7284008 1.6649284 0.71463466 0 0 255
1.7259388 1.6664673 0.71056402 0 0 255
1.7234766 1.6680062 0.70649338 0 0 255
1.7210146 1.6695451 0.70242268 0 0 255
1.7185526 1.6710839 0.69835204 0 0 255
1.7160906 1.6726228 0.69428134 0 0 255
1.7136285 1.6741617 0.6902107 0 0 255
1.7111665 1.6757005 0.68614006 0 0 255
1.7087045 1.6772394 0.68206936 0 0 255
1.7062423 1.6787783 0.67799872 0 0 255
1.7037803 1.6803172 0.67392808 0 0 255
1.7013183 1.681856 0.66985738 0 0 255
1.6988562 1.6833949 0.66578674 0 0 255
1.6963942 1.6849338 0.6617161 0 0 255
1.6939321 1.6864727 0.6576454 0 0 255
1.69147 1.6880114 0.65357476 0 0 255
1.689008 1.6895504 0.64950407 0 0 255
1.686546 1.6910892 0.64543343 0 0 255
1.6840839 1.692628 0.64136279 0 0 255
1.6816218 1.6941669 0.63729215 0 0 255
1.6791598 1.6957058 0.63322145 0 0 255
1.6766977 1.6972446 0.62915081 0 0 255
1.6742357 1.6987835 0.62508017 0 0 255
1.6717737 1.7003224 0.62100947 0 0 255
1.6693116 1.7018613 0.61693883 0 0 255
1.6668496 1.7034001 0.61286819 0 0 255
1.6643875 1.704939 0.60879749 0 0 255
1.6619254 1.7064779 0.60472685 0 0 255
1.6594634 1.7080168 0.60065615 0 0 255
1.6570014 1.7095556 0.59658551 0 0 255
1.6545393 1.7110944 0.59251487 0 0 255
1.6520772 1.7126334 0.58844423 0 0 255
1.6496152 1.7141721 0.58437353 0 0 255
1.6471531 1.715711 0.58030289 0 0 255
1.6446911 1.7172499 0.57623219 0 0 255
1.6422291 1.7187887 0.57216156 0 0 255
1.6397671 1.7203276 0.56809092 0 0 255
1.637305 1.7218665 0.56402028 0 0 255
1.6348429 1.7234054 0.55994958 0 0 255
1.6323808 1.7249442 0.55587894 0 0 255
1.6299188 1.7264831 0.5518083 0 0 255
1.6274568 1.728022 0.5477376 0 0 255
1.6249948 1.7295609 0.54366696 0 0 255
1.6225326 1.7310997 0.53959626 0 0 255
1.6200706 1.7326386 0.53552562 0 0 255
1.6176085 1.7341774 0.53145498 0 0 255
1.6151465 1.7357163 0.52738428 0 0 255
1.6126845 1.7372551 0.52331364 0 0 255
1.6102225 1.738794 0.519243 0 0 255
1.6077603 1.7403328 0.5151723 0 0 255
1.6052983 1.7418717 0.51110166 0 0 255
1.6028363 1.7434106 0.50703096 0 0 255
1.6003742 1.7449495 0.50296032 0 0 255
1.5979122 1.7464883 0.49888968 0 0 255
1.5954502 1.7480272 0.49481902 0 0 255
1.592988 1.7495661 0.49074835 0 0 255
1.590526 1.751105 0.48667771 0 0 255
1.588064 1.7526438 0.48260704 0 0 255
1.7401377 1.6612865 0.72458363 0 0 255
1.7376757 1.6628253 0.72051299 0 0 255
1.7352136 1.6643642 0.71644235 0 0 255
1.7327516 1.6659031 0.71237171 0 0 255
1.7302895 1.667442 0.70830101 0 0 255
1.7278274 1.6689808 0.70423037 0 0 255
1.7253654 1.6705197 0.70015967 0 0 255
1.7229034 1.6720586 0.69608903 0 0 255
1.7204413 1.6735975 0.69201839 0 0 255
1.7179792 1.6751363 0.68794769 0 0 255
1.7155172 1.6766752 0.68387705 0 0 255
1.7130551 1.6782141 0.67980641 0 0 255
1.7105931 1.6797529 0.67573571 0 0 255
1.7081311 1.6812918 0.67166507 0 0 255
1.7056689 1.6828306 0.66759443 0 0 255
1.7032069 1.6843696 0.66352373 0 0 255
1.7007449 1.6859083 0.65945309 0 0 255
1.6982828 1.6874472 0.65538239 0 0 255
1.6958208 1.6889861 0.65131176 0 0 255
1.6933588 1.6905249 0.64724112 0 0 255
1.6908967 1.6920638 0.64317042 0 0 255
1.6884346 1.6936027 0.63909978 0 0 255
1.6859726 1.6951416 0.63502914 0 0 255
1.6835105 1.6966804 0.63095844 0 0 255
1.6810485 1.6982193 0.6268878 0 0 255
1.6785865 1.6997582 0.62281716 0 0 255
1.6761243 1.701297 0.61874652 0 0 255
1.6736623 1.7028359 0.61467582 0 0 255
1.6712003 1.7043748 0.61060518 0 0 255
1.6687382 1.7059135 0.60653448 0 0 255
1.6662762 1.7074525 0.60246384 0 0 255
1.6638142 1.7089913 0.5983932 0 0 255
1.661352 1.7105302 0.5943225 0 0 255
1.65889 1.712069 0.59025186 0 0 255
1.656428 1.7136079 0.58618122 0 0 255
1.653966 1.7151468 0.58211052 0 0 255
1.6515039 1.7166857 0.57803988 0 0 255
1.6490419 1.7182245 0.57396924 0 0 255
1.6465797 1.7197634 0.56989861 0 0 255
1.6441177 1.7213023 0.56582791 0 0 255
1.6416557 1.7228411 0.56175727 0 0 255
1.6391937 1.72438 0.55768657 0 0 255
1.6367316 1.7259189 0.55361593 0 0 255
1.6342696 1.7274578 0.54954529 0 0 255
1.6318074 1.7289965 0.54547459 0 0 255
1.6293454 1.7305355 0.54140395 0 0 255
1.6268834 1.7320743 0.53733331 0 0 255
1.6244214 1.7336131 0.53326261 0 0 255
1.6219593 1.735152 0.52919197 0 0 255
1.6194973 1.7366909 0.52512133 0 0 255
1.6170352 1.7382298 0.52105063 0 0 255
1.6145731 1.7397686 0.51697999 0 0 255
1.6121111 1.7413075 0.51290929 0 0 255
1.6096491 1.7428464 0.50883865 0 0 255
1.607187 1.7443852 0.50476801 0 0 255
1.6047249 1.7459241 0.50069737 0 0 255
1.6022629 1.747463 0.49662668 0 0 255
1.5998008 1.7490019 0.49255601 0 0 255
1.5973388 1.7505407 0.48848537 0 0 255
1.5948768 1.7520796 0.4844147 0 0 255
1.5924147 1.7536185 0.48034406 0 0 255
1.7444885 1.6622611 0.72232068 0 0 255
1.7420263 1.6638 0.71824998 0 0 255
1.7395643 1.6653389 0.71417934 0 0 255
1.7371023 1.6668777 0.7101087 0 0 255
1.7346402 1.6684166 0.706038 0 0 255
1.7321782 1.6699555 0.70196736 0 0 255
1.7297162 1.6714944 0.69789672 0 0 255
1.7272542 1.6730332 0.69382602 0 0 255
1.724792 1.6745721 0.68975538 0 0 255
1.72233 1.676111 0.68568468 0 0 255
1.7198679 1.6776499 0.68161404 0 0 255
1.7174059 1.6791887 0.6775434 0 0 255
1.7149439 1.6807275 0.6734727 0 0 255
1.7124817 1.6822664 0.66940206 0 0 255
1.7100197 1.6838052 0.66533142 0 0 255
1.7075577 1.6853441 0.66126072 0 0 255
1.7050956 1.686883 0.65719008 0 0 255
1.7026336 1.6884218 0.65311944 0 0 255
1.7001716 1.6899607 0.64904875 0 0 255
1.6977094 1.6914996 0.64497811 0 0 255
1.6952474 1.6930385 0.64090747 0 0 255
1.6927854 1.6945773 0.63683677 0 0 255
1.6903234 1.6961162 0.63276613 0 0 255
1.6878613 1.6976551 0.62869549 0 0 255
1.6853993 1.699194 0.62462479 0 0 255
1.6829371 1.7007328 0.62055415 0 0 255
1.6804751 1.7022717 0.61648351 0 0 255
1.6780131 1.7038105 0.61241281 0 0 255
1.6755511 1.7053493 0.60834217 0 0 255
1.673089 1.7068882 0.60427153 0 0 255
1.6706269 1.7084271 0.60020083 0 0 255
1.6681648 1.7099659 0.59613019 0 0 255
1.6657028 1.7115048 0.59205949 0 0 255
1.6632408 1.7130437 0.58798885 0 0 255
1.6607788 1.7145826 0.58391821 0 0 255
1.6583167 1.7161214 0.57984757 0 0 255
1.6558547 1.7176603 0.57577688 0 0 255
1.6533926 1.7191992 0.57170624 0 0 255
1.6509305 1.7207381 0.5676356 0 0 255
1.6484685 1.7222769 0.5635649 0 0 255
1.6460065 1.7238158 0.55949426 0 0 255
1.6435444 1.7253547 0.55542362 0 0 255
1.6410823 1.7268934 0.55135292 0 0 255
1.6386203 1.7284323 0.54728228 0 0 255
1.6361582 1.7299712 0.54321164 0 0 255
1.6336962 1.73151 0.53914094 0 0 255
1.6312342 1.7330489 0.5350703 0 0 255
1.6287721 1.7345878 0.5309996 0 0 255
1.6263101 1.7361267 0.52692896 0 0 255
1.623848 1.7376655 0.52285832 0 0 255
1.6213859 1.7392044 0.51878762 0 0 255
1.6189239 1.7407433 0.51471698 0 0 255
1.6164619 1.7422822 0.51064634 0 0 255
1.6139998 1.743821 0.50657564 0 0 255
1.6115377 1.7453599 0.502505 0 0 255
1.6090757 1.7468988 0.49843433 0 0 255
1.6066136 1.7484376 0.49436367 0 0 255
1.6041516 1.7499764 0.49029303 0 0 255
1.6016896 1.7515154 0.48622236 0 0 255
1.5992275 1.7530541 0.48215172 0 0 255
1.5967654 1.754593 0.47808105 0 0 255
1.7488391 1.6632358 0.72005767 0 0 255
1.7463771 1.6647747 0.71598697 0 0 255
1.7439151 1.6663135 0.71191633 0 0 255
1.7414531 1.6678524 0.70784569 0 0 255
1.738991 1.6693913 0.70377505 0 0 255
1.7365289 1.6709301 0.69970435 0 0 255
1.7340668 1.672469 0.69563371 0 0 255
1.7316048 1.6740079 0.69156301 0 0 255
1.7291428 1.6755466 0.68749237 0 0 255
1.7266808 1.6770855 0.68342173 0 0 255
1.7242187 1.6786244 0.67935103 0 0 255
1.7217567 1.6801633 0.67528039 0 0 255
1.7192945 1.6817021 0.67120975 0 0 255
1.7168325 1.683241 0.66713905 0 0 255
1.7143705 1.6847799 0.66306841 0 0 255
1.7119085 1.6863188 0.65899777 0 0 255
1.7094464 1.6878576 0.65492707 0 0 255
1.7069843 1.6893965 0.65085644 0 0 255
1.7045223 1.6909354 0.64678574 0 0 255
1.7020602 1.6924742 0.6427151 0 0 255
1.6995982 1.6940131 0.63864446 0 0 255
1.6971362 1.695552 0.63457376 0 0 255
1.694674 1.6970909 0.63050312 0 0 255
1.692212 1.6986296 0.62643248 0 0 255
1.68975 1.7001686 0.62236178 0 0 255
1.6872879 1.7017074 0.61829114 0 0 255
1.6848259 1.7032462 0.6142205 0 0 255
1.6823639 1.7047851 0.61014986 0 0 255
1.6799018 1.706324 0.60607916 0 0 255
1.6774397 1.7078629 0.60200852 0 0 255
1.6749777 1.7094017 0.59793782 0 0 255
1.6725156 1.7109406 0.59386718 0 0 255
1.6700536 1.7124795 0.58979654 0 0 255
1.6675916 1.7140183 0.5857259 0 0 255
1.6651294 1.7155572 0.5816552 0 0 255
1.6626674 1.7170961 0.57758456 0 0 255
1.6602054 1.718635 0.57351387 0 0 255
1.6577433 1.7201738 0.56944323 0 0 255
1.6552813 1.7217126 0.56537259 0 0 255
1.6528193 1.7232516 0.56130189 0 0 255
1.6503572 1.7247903 0.55723125 0 0 255
1.6478951 1.7263292 0.55316061 0 0 255
1.6454331 1.7278681 0.54908997 0 0 255
1.642971 1.729407 0.54501927 0 0 255
1.640509 1.7309458 0.54094863 0 0 255
1.638047 1.7324847 0.53687793 0 0 255
1.6355848 1.7340236 0.53280729 0 0 255
1.6331228 1.7355624 0.52873665 0 0 255
1.6306608 1.7371013 0.52466595 0 0 255
1.6281987 1.7386402 0.52059531 0 0 255
1.6257367 1.7401791 0.51652467 0 0 255
1.6232747 1.7417179 0.51245397 0 0 255
1.6208125 1.7432568 0.50838333 0 0 255
1.6183505 1.7447956 0.50431263 0 0 255
1.6158885 1.7463346 0.50024199 0 0 255
1.6134264 1.7478733 0.49617133 0 0 255
1.6109644 1.7494122 0.49210069 0 0 255
1.6085024 1.7509511 0.48803002 0 0 255
1.6060402 1.7524899 0.48395938 0 0 255
1.6035782 1.7540288 0.47988871 0 0 255
1.6011162 1.7555677 0.47581807 0 0 255
1.4099798 1.35342 0.8078866 255 0 0
1.4098828 1.3580765 0.80970556 255 0 0
1.4097859 1.3627329 0.81152451 255 0 0
1.4096888 1.3673892 0.81334352 255 0 0
1.4095919 1.3720456 0.81516242 255 0 0
1.4094949 1.3767021 0.81698143 255 0 0
1.4093978 1.3813584 0.81880039 255 0 0
1.4093009 1.3860148 0.82061934 255 0 0
1.4092039 1.3906713 0.8224383 255 0 0
1.409107 1.3953277 0.82425725 255 0 0
1.4090099 1.399984 0.82607621 255 0 0
1.4089129 1.4046404 0.82789516 255 0 0
1.408816 1.4092969 0.82971412 255 0 0
1.4087189 1.4139533 0.83153307 255 0 0
1.408622 1.4186096 0.83335209 255 0 0
1.408525 1.4232661 0.83517098 255 0 0
1.408428 1.4279225 0.83699 255 0 0
1.408331 1.4325788 0.83880895 255 0 0
1.408234 1.4372352 0.84062791 255 0 0
1.4081371 1.4418917 0.84244686 255 0 0
1.40804 1.4465481 0.84426582 255 0 0
1.407943 1.4512044 0.84608477 255 0 0
1.4078461 1.4558609 0.84790373 255 0 0
1.4077491 1.4605173 0.84972268 255 0 0
1.4076521 1.4651736 0.85154164 255 0 0
1.4075551 1.46983 0.85336065 255 0 0
1.4074581 1.4744865 0.85517955 255 0 0
1.4073611 1.4791429 0.85699856 255 0 0
1.4072641 1.4837992 0.85881752 255 0 0
1.4071672 1.4884557 0.86063647 255 0 0
1.4070702 1.4931121 0.86245543 255 0 0
1.4069731 1.4977684 0.86427438 255 0 0
1.4068762 1.5024248 0.86609334 255 0 0
1.4067792 1.5070813 0.86791229 255 0 0
1.4066823 1.5117376 0.86973125 255 0 0
1.4065852 1.516394 0.8715502 255 0 0
1.4064882 1.5210505 0.87336916 255 0 0
1.4063913 1.5257069 0.87518811 255 0 0
1.4062942 1.5303632 0.87700713 255 0 0
1.4061973 1.5350196 0.87882602 255 0 0
1.4061003 1.5396761 0.88064504 255 0 0
1.4060032 1.5443325 0.88246399 255 0 0
1.4059063 1.5489888 0.88428295 255 0 0
1.4058093 1.5536453 0.8861019 255 0 0
1.4057124 1.5583017 0.88792086 255 0 0
1.4056153 1.562958 0.88973981 255 0 0
1.4055183 1.5676144 0.89155877 255 0 0
1.4054214 1.5722709 0.89337778 255 0 0
1.4053243 1.5769273 0.89519668 255 0 0
1.4052274 1.5815836 0.89701569 255 0 0
1.2622569 1.4457519 0.56364703 255 0 0
1.2621598 1.4504083 0.56546593 255 0 0
1.2620628 1.4550648 0.56728494 255 0 0
1.2619659 1.4597211 0.5691039 255 0 0
1.2618688 1.4643775 0.57092285 255 0 0
1.2617719 1.469034 0.57274181 255 0 0
1.2616749 1.4736904 0.57456076 255 0 0
1.2615778 1.4783467 0.57637972 255 0 0
1.2614809 1.4830031 0.57819867 255 0 0
1.2613839 1.4876596 0.58001763 255 0 0
1.261287 1.492316 0.58183658 255 0 0
1.2611899 1.4969723 0.5836556 255 0 0
1.2610929 1.5016288 0.58547455 255 0 0
1.260996 1.5062852 0.58729351 255 0 0
1.2608989 1.5109415 0.58911246 255 0 0
1.260802 1.5155979 0.59093142 255 0 0
1.260705 1.5202544 0.59275037 255 0 0
1.260608 1.5249108 0.59456933 255 0 0
1.260511 1.5295671 0.59638828 255 0 0
1.260414 1.5342236 0.59820724 255 0 0
1.2603171 1.53888 0.60002619 255 0 0
1.2602201 1.5435363 0.60184515 255 0 0
1.260123 1.5481927 0.6036641 255 0 0
1.2600261 1.5528492 0.60548306 255 0 0
1.2599291 1.5575056 0.60730207 255 0 0
1.2598321 1.5621619 0.60912102 255 0 0
1.2597351 1.5668184 0.61093998 255 0 0
1.2596381 1.5714748 0.61275893 255 0 0
1.2595412 1.5761311 0.61457789 255 0 0
1.2594441 1.5807875 0.61639684 255 0 0
1.2593472 1.585444 0.6182158 255 0 0
1.2592502 1.5901004 0.62003475 255 0 0
1.2591531 1.5947567 0.62185371 255 0 0
1.2590562 1.5994132 0.62367266 255 0 0
1.2589592 1.6040696 0.62549162 255 0 0
1.2588623 1.6087259 0.62731063 255 0 0
1.2587652 1.6133823 0.62912959 255 0 0
1.2586682 1.6180388 0.63094854 255 0 0
1.2585713 1.6226952 0.6327675 255 0 0
1.2584742 1.6273515 0.63458645 255 0 0
1.2583773 1.632008 0.63640541 255 0 0
1.2582803 1.6366644 0.63822436 255 0 0
1.2581832 1.6413207 0.64004332 255 0 0
1.2580863 1.6459771 0.64186227 255 0 0
1.2579893 1.6506336 0.64368123 255 0 0
1.2578924 1.65529 0.64550018 255 0 0
1.2577953 1.6599463 0.6473192 255 0 0
1.2576983 1.6646028 0.64913815 255 0 0
1.2576014 1.6692592 0.65095711 255 0 0
1.2575043 1.6739156 0.65277606 255 0 0
1.4098828 1.3580765 0.80970556 255 0 0
1.4074208 1.3596153 0.80563492 255 0 0
1.4049587 1.3611542 0.80156422 255 0 0
1.4024967 1.3626931 0.79749358 255 0 0
1.4000347 1.3642318 0.79342294 255 0 0
1.3975726 1.3657707 0.7893523 255 0 0
1.3951106 1.3673096 0.78528166 255 0 0
1.3926485 1.3688484 0.78121096 255 0 0
1.3901864 1.3703873 0.77714032 255 0 0
1.3877244 1.3719262 0.77306962 255 0 0
1.3852624 1.3734651 0.76899898 255 0 0
1.3828003 1.3750039 0.76492834 255 0 0
1.3803382 1.3765428 0.76085764 255 0 0
1.3778762 1.3780817 0.756787 255 0 0
1.3754141 1.3796206 0.7527163 255 0 0
1.3729521 1.3811594 0.74864566 255 0 0
1.3704901 1.3826983 0.74457502 255 0 0
1.3680279 1.3842372 0.74050432 255 0 0
1.3655659 1.385776 0.73643368 255 0 0
1.3631039 1.3873149 0.73236299 255 0 0
1.3606418 1.3888538 0.72829235 255 0 0
1.3581798 1.3903925 0.72422171 255 0 0
1.3557178 1.3919314 0.72015107 255 0 0
1.3532557 1.3934703 0.71608037 255 0 0
1.3507936 1.3950092 0.71200973 255 0 0
1.3483316 1.396548 0.70793909 255 0 0
1.3458695 1.3980869 0.70386839 255 0 0
1.3434075 1.3996258 0.69979775 255 0 0
1.3409455 1.4011647 0.69572711 255 0 0
1.3384833 1.4027035 0.69165641 255 0 0
1.3360213 1.4042424 0.68758577 255 0 0
1.3335593 1.4057813 0.68351513 255 0 0
1.3310972 1.4073201 0.67944443 255 0 0
1.3286352 1.408859 0.67537379 255 0 0
1.3261732 1.4103979 0.67130315 255 0 0
1.323711 1.4119368 0.66723245 255 0 0
1.321249 1.4134755 0.66316181 255 0 0
1.318787 1.4150144 0.65909117 255 0 0
1.3163249 1.4165533 0.65502048 255 0 0
1.3138629 1.4180921 0.65094984 255 0 0
1.3114009 1.419631 0.6468792 255 0 0
1.3089387 1.4211699 0.6428085 255 0 0
1.3064767 1.4227087 0.63873786 255 0 0
1.3040147 1.4242476 0.63466722 255 0 0
1.3015527 1.4257865 0.63059652 255 0 0
1.2990906 1.4273254 0.62652588 255 0 0
1.2966285 1.4288642 0.62245524 255 0 0
1.2941664 1.4304031 0.61838454 255 0 0
1.2917044 1.431942 0.6143139 255 0 0
1.2892424 1.4334809 0.6102432 255 0 0
1.2867804 1.4350197 0.60617256 255 0 0
1.2843183 1.4365586 0.60210192 255 0 0
1.2818562 1.4380975 0.59803122 255 0 0
1.2793941 1.4396362 0.59396058 255 0 0
1.2769321 1.4411751 0.58988988 255 0 0
1.2744701 1.442714 0.58581924 255 0 0
1.2720081 1.4442528 0.5817486 255 0 0
1.269546 1.4457917 0.57767797 255 0 0
1.2670839 1.4473306 0.57360727 255 0 0
1.2646219 1.4488695 0.56953663 255 0 0
1.2621598 1.4504083 0.56546599 255 0 0
1.4097859 1.3627329 0.81152451 255 0 0
1.4073238 1.3642716 0.80745387 255 0 0
1.4048617 1.3658105 0.80338323 255 0 0
1.4023997 1.3673494 0.79931253 255 0 0
1.3999376 1.3688883 0.79524189 255 0 0
1.3974756 1.3704271 0.79117125 255 0 0
1.3950136 1.371966 0.78710055 255 0 0
1.3925515 1.3735049 0.78302991 255 0 0
1.3900895 1.3750437 0.77895927 255 0 0
1.3876274 1.3765826 0.77488858 255 0 0
1.3851653 1.3781215 0.77081794 255 0 0
1.3827033 1.3796604 0.76674724 255 0 0
1.3802413 1.3811992 0.7626766 255 0 0
1.3777792 1.3827381 0.75860596 255 0 0
1.3753171 1.384277 0.75453532 255 0 0
1.3728551 1.3858159 0.75046462 255 0 0
1.370393 1.3873546 0.74639398 255 0 0
1.367931 1.3888936 0.74232328 255 0 0
1.365469 1.3904324 0.73825264 255 0 0
1.3630068 1.3919712 0.734182 255 0 0
1.3605448 1.3935101 0.7301113 255 0 0
1.3580828 1.395049 0.72604066 255 0 0
1.3556207 1.3965878 0.72197002 255 0 0
1.3531587 1.3981267 0.71789932 255 0 0
1.3506967 1.3996656 0.71382868 255 0 0
1.3482347 1.4012045 0.70975804 255 0 0
1.3457725 1.4027433 0.7056874 255 0 0
1.3433105 1.4042822 0.7016167 255 0 0
1.3408484 1.4058211 0.69754606 255 0 0
1.3383864 1.40736 0.69347537 255 0 0
1.3359244 1.4088988 0.68940473 255 0 0
1.3334622 1.4104376 0.68533409 255 0 0
1.3310002 1.4119766 0.68126339 255 0 0
1.3285382 1.4135153 0.67719275 255 0 0
1.3260761 1.4150542 0.67312211 255 0 0
1.3236141 1.4165931 0.66905141 255 0 0
1.3211521 1.4181319 0.66498077 255 0 0
1.3186901 1.4196708 0.66091013 255 0 0
1.3162279 1.4212097 0.65683943 255 0 0
1.3137659 1.4227486 0.65276879 255 0 0
1.3113039 1.4242874 0.64869815 255 0 0
1.3088418 1.4258263 0.64462745 255 0 0
1.3063798 1.4273652 0.64055681 255 0 0
1.3039176 1.4289041 0.63648617 255 0 0
1.3014556 1.4304429 0.63241547 255 0 0
1.2989936 1.4319818 0.62834483 255 0 0
1.2965316 1.4335207 0.62427419 255 0 0
1.2940695 1.4350595 0.6202035 255 0 0
1.2916074 1.4365983 0.61613286 255 0 0
1.2891454 1.4381372 0.61206222 255 0 0
1.2866833 1.439676 0.60799152 255 0 0
1.2842213 1.4412149 0.60392088 255 0 0
1.2817593 1.4427538 0.59985018 255 0 0
1.2792972 1.4442927 0.59577954 255 0 0
1.2768351 1.4458315 0.5917089 255 0 0
1.2743731 1.4473704 0.5876382 255 0 0
1.271911 1.4489093 0.58356756 255 0 0
1.269449 1.4504482 0.57949692 255 0 0
1.266987 1.451987 0.57542622 255 0 0
1.2645249 1.4535259 0.57135558 255 0 0
1.2620628 1.4550648 0.56728494 255 0 0
1.4096888 1.3673892 0.81334352 255 0 0
1.4072268 1.3689281 0.80927283 255 0 0
1.4047648 1.3704669 0.80520219 255 0 0
1.4023027 1.3720058 0.80113149 255 0 0
1.3998407 1.3735447 0.79706085 255 0 0
1.3973787 1.3750836 0.79299021 255 0 0
1.3949165 1.3766224 0.78891957 255 0 0
1.3924545 1.3781613 0.78484887 255 0 0
1.3899925 1.3797002 0.78077823 255 0 0
1.3875304 1.3812391 0.77670753 255 0 0
1.3850684 1.3827779 0.77263689 255 0 0
1.3826063 1.3843168 0.76856625 255 0 0
1.3801442 1.3858557 0.76449555 255 0 0
1.3776822 1.3873944 0.76042491 255 0 0
1.3752202 1.3889333 0.75635427 255 0 0
1.3727582 1.3904722 0.75228357 255 0 0
1.370296 1.392011 0.74821293 255 0 0
1.367834 1.3935499 0.74414223 255 0 0
1.3653719 1.3950888 0.74007159 255 0 0
1.3629099 1.3966277 0.73600096 255 0 0
1.3604479 1.3981665 0.73193026 255 0 0
1.3579857 1.3997054 0.72785962 255 0 0
1.3555237 1.4012443 0.72378898 255 0 0
1.3530617 1.4027832 0.71971828 255 0 0
1.3505996 1.404322 0.71564764 255 0 0
1.3481376 1.4058609 0.711577 255 0 0
1.3456756 1.4073998 0.7075063 255 0 0
1.3432136 1.4089386 0.70343566 255 0 0
1.3407514 1.4104774 0.69936502 255 0 0
1.3382894 1.4120163 0.69529438 255 0 0
1.3358274 1.4135551 0.69122368 255 0 0
1.3333653 1.415094 0.68715304 255 0 0
1.3309033 1.4166329 0.68308234 255 0 0
1.3284411 1.4181718 0.6790117 255 0 0
1.3259791 1.4197106 0.67494106 255 0 0
1.3235171 1.4212495 0.67087036 255 0 0
1.3210551 1.4227884 0.66679972 255 0 0
1.318593 1.4243273 0.66272908 255 0 0
1.316131 1.4258661 0.65865839 255 0 0
1.313669 1.427405 0.65458775 255 0 0
1.3112068 1.4289439 0.65051711 255 0 0
1.3087448 1.4304827 0.64644641 255 0 0
1.3062828 1.4320216 0.64237577 255 0 0
1.3038207 1.4335604 0.63830513 255 0 0
1.3013587 1.4350992 0.63423443 255 0 0
1.2988966 1.4366381 0.63016379 255 0 0
1.2964345 1.438177 0.62609315 255 0 0
1.2939725 1.4397159 0.62202245 255 0 0
1.2915105 1.4412547 0.61795181 255 0 0
1.2890484 1.4427936 0.61388117 255 0 0
1.2865863 1.4443325 0.60981047 255 0 0
1.2841243 1.4458714 0.60573983 255 0 0
1.2816622 1.4474102 0.60166919 255 0 0
1.2792002 1.4489491 0.59759849 255 0 0
1.2767382 1.450488 0.59352785 255 0 0
1.2742761 1.4520268 0.58945715 255 0 0
1.2718141 1.4535657 0.58538651 255 0 0
1.269352 1.4551046 0.58131588 255 0 0
1.2668899 1.4566435 0.57724524 255 0 0
1.2644279 1.4581823 0.57317454 255 0 0
1.2619659 1.4597211 0.5691039 255 0 0
1.4095919 1.3720456 0.81516242 255 0 0
1.4071298 1.3735845 0.81109178 255 0 0
1.4046677 1.3751234 0.80702114 255 0 0
1.4022057 1.3766623 0.8029505 255 0 0
1.3997437 1.3782011 0.7988798 255 0 0
1.3972816 1.37974 0.79480916 255 0 0
1.3948196 1.3812789 0.79073852 255 0 0
1.3923576 1.3828177 0.78666782 255 0 0
1.3898954 1.3843565 0.78259718 255 0 0
1.3874334 1.3858955 0.77852654 255 0 0
1.3849714 1.3874342 0.77445585 255 0 0
1.3825094 1.3889731 0.77038521 255 0 0
1.3800473 1.390512 0.76631451 255 0 0
1.3775852 1.3920509 0.76224387 255 0 0
1.3751231 1.3935897 0.75817323 255 0 0
1.3726611 1.3951286 0.75410253 255 0 0
1.3701991 1.3966675 0.75003189 255 0 0
1.3677371 1.3982064 0.74596119 255 0 0
1.365275 1.3997452 0.74189055 255 0 0
1.3628129 1.4012841 0.73781991 255 0 0
1.3603508 1.402823 0.73374927 255 0 0
1.3578888 1.4043618 0.72967857 255 0 0
1.3554268 1.4059007 0.72560793 255 0 0
1.3529648 1.4074395 0.72153723 255 0 0
1.3505027 1.4089785 0.71746659 255 0 0
1.3480406 1.4105172 0.71339595 255 0 0
1.3455786 1.4120561 0.70932531 255 0 0
1.3431165 1.413595 0.70525461 255 0 0
1.3406545 1.4151338 0.70118397 255 0 0
1.3381925 1.4166727 0.69711334 255 0 0
1.3357303 1.4182116 0.69304264 255 0 0
1.3332683 1.4197505 0.688972 255 0 0
1.3308063 1.4212893 0.68490136 255 0 0
1.3283442 1.4228282 0.68083066 255 0 0
1.3258822 1.4243671 0.67676002 255 0 0
1.3234202 1.4259059 0.67268932 255 0 0
1.3209581 1.4274448 0.66861868 255 0 0
1.318496 1.4289837 0.66454804 255 0 0
1.316034 1.4305226 0.6604774 255 0 0
1.3135719 1.4320614 0.6564067 255 0 0
1.3111099 1.4336002 0.65233606 255 0 0
1.3086479 1.4351391 0.64826542 255 0 0
1.3061857 1.4366779 0.64419472 255 0 0
1.3037237 1.4382168 0.64012408 255 0 0
1.3012617 1.4397557 0.63605344 255 0 0
1.2987996 1.4412946 0.63198274 255 0 0
1.2963376 1.4428334 0.6279121 255 0 0
1.2938756 1.4443723 0.6238414 255 0 0
1.2914134 1.4459112 0.61977077 255 0 0
1.2889514 1.44745 0.61570013 255 0 0
1.2864894 1.4489889 0.61162943 255 0 0
1.2840273 1.4505278 0.60755879 255 0 0
1.2815653 1.4520667 0.60348815 255 0 0
1.2791033 1.4536055 0.59941745 255 0 0
1.2766411 1.4551444 0.59534681 255 0 0
1.2741791 1.4566832 0.59127611 255 0 0
1.2717171 1.458222 0.58720547 255 0 0
1.269255 1.4597609 0.58313483 255 0 0
1.266793 1.4612998 0.57906419 255 0 0
1.2643309 1.4628386 0.57499349 255 0 0
1.2618688 1.4643775 0.57092285 255 0 0
1.4094949 1.3767021 0.81698143 255 0 0
1.4070328 1.3782409 0.8129108 255 0 0
1.4045708 1.3797798 0.8088401 255 0 0
1.4021088 1.3813186 0.80476946 255 0 0
1.3996466 1.3828576 0.80069876 255 0 0
1.3971846 1.3843963 0.79662812 255 0 0
1.3947226 1.3859352 0.79255748 255 0 0
1.3922606 1.3874741 0.78848684 255 0 0
1.3897985 1.3890129 0.78441614 255 0 0
1.3873365 1.3905518 0.7803455 255 0 0
1.3848743 1.3920907 0.7762748 255 0 0
1.3824123 1.3936296 0.77220416 255 0 0
1.3799503 1.3951684 0.76813352 255 0 0
1.3774883 1.3967073 0.76406282 255 0 0
1.3750262 1.3982462 0.75999218 255 0 0
1.3725641 1.399785 0.75592148 255 0 0
1.370102 1.4013239 0.75185084 255 0 0
1.36764 1.4028628 0.7477802 255 0 0
1.365178 1.4044017 0.7437095 255 0 0
1.362716 1.4059405 0.73963886 255 0 0
1.3602539 1.4074793 0.73556823 255 0 0
1.3577918 1.4090182 0.73149753 255 0 0
1.3553298 1.410557 0.72742689 255 0 0
1.3528677 1.4120959 0.72335625 255 0 0
1.3504057 1.4136348 0.71928555 255 0 0
1.3479437 1.4151736 0.71521491 255 0 0
1.3454816 1.4167125 0.71114427 255 0 0
1.3430195 1.4182514 0.70707357 255 0 0
1.3405575 1.4197903 0.70300293 255 0 0
1.3380954 1.4213291 0.69893229 255 0 0
1.3356334 1.422868 0.69486159 255 0 0
1.3331714 1.4244069 0.69079095 255 0 0
1.3307092 1.4259458 0.68672031 255 0 0
1.3282472 1.4274846 0.68264961 255 0 0
1.3257852 1.4290235 0.67857897 255 0 0
1.3233231 1.4305623 0.67450833 255 0 0
1.3208611 1.4321011 0.67043763 255 0 0
1.3183991 1.43364 0.66636699 255 0 0
1.315937 1.4351789 0.66229635 255 0 0
1.3134749 1.4367177 0.65822566 255 0 0
1.3110129 1.4382566 0.65415502 255 0 0
1.3085508 1.4397955 0.65008438 255 0 0
1.3060888 1.4413344 0.64601368 255 0 0
1.3036268 1.4428732 0.64194304 255 0 0
1.3011646 1.4444121 0.6378724 255 0 0
1.2987026 1.445951 0.6338017 255 0 0
1.2962406 1.4474899 0.62973106 255 0 0
1.2937785 1.4490287 0.62566042 255 0 0
1.2913165 1.4505676 0.62158972 255 0 0
1.2888545 1.4521065 0.61751908 255 0 0
1.2863923 1.4536453 0.61344838 255 0 0
1.2839303 1.4551842 0.60937774 255 0 0
1.2814683 1.456723 0.6053071 255 0 0
1.2790062 1.4582618 0.6012364 255 0 0
1.2765442 1.4598007 0.59716576 255 0 0
1.2740822 1.4613396 0.59309512 255 0 0
1.27162 1.4628785 0.58902442 255 0 0
1.269158 1.4644173 0.58495378 255 0 0
1.266696 1.4659562 0.58088315 255 0 0
1.2642339 1.4674951 0.57681251 255 0 0
1.2617719 1.469034 0.57274181 255 0 0
1.4093978 1.3813584 0.81880039 255 0 0
1.4069358 1.3828973 0.81472969 255 0 0
1.4044738 1.3844361 0.81065905 255 0 0
1.4020118 1.385975 0.80658841 255 0 0
1.3995497 1.3875139 0.80251777 255 0 0
1.3970877 1.3890527 0.79844707 255 0 0
1.3946257 1.3905916 0.79437643 255 0 0
1.3921635 1.3921305 0.79030573 255 0 0
1.3897015 1.3936694 0.78623509 255 0 0
1.3872395 1.3952082 0.78216445 255 0 0
1.3847774 1.3967471 0.77809381 255 0 0
1.3823154 1.398286 0.77402312 255 0 0
1.3798532 1.3998249 0.76995248 255 0 0
1.3773912 1.4013637 0.76588178 255 0 0
1.3749292 1.4029026 0.76181114 255 0 0
1.3724672 1.4044414 0.7577405 255 0 0
1.3700051 1.4059803 0.7536698 255 0 0
1.367543 1.4075191 0.74959916 255 0 0
1.365081 1.409058 0.74552846 255 0 0
1.3626189 1.4105968 0.74145782 255 0 0
1.3601569 1.4121357 0.73738718 255 0 0
1.3576949 1.4136746 0.73331654 255 0 0
1.3552328 1.4152135 0.72924584 255 0 0
1.3527708 1.4167523 0.7251752 255 0 0
1.3503087 1.4182912 0.7211045 255 0 0
1.3478466 1.4198301 0.71703386 255 0 0
1.3453846 1.421369 0.71296322 255 0 0
1.3429226 1.4229078 0.70889258 255 0 0
1.3404605 1.4244467 0.70482188 255 0 0
1.3379984 1.4259856 0.70075125 255 0 0
1.3355364 1.4275243 0.69668055 255 0 0
1.3330743 1.4290633 0.69260991 255 0 0
1.3306123 1.4306021 0.68853927 255 0 0
1.3281503 1.4321409 0.68446863 255 0 0
1.3256882 1.4336798 0.68039793 255 0 0
1.3232261 1.4352187 0.67632729 255 0 0
1.3207641 1.4367576 0.67225659 255 0 0
1.318302 1.4382964 0.66818595 255 0 0
1.31584 1.4398353 0.66411531 255 0 0
1.313378 1.4413742 0.66004461 255 0 0
1.3109159 1.4429131 0.65597397 255 0 0
1.3084538 1.4444519 0.65190333 255 0 0
1.3059918 1.4459908 0.64783263 255 0 0
1.3035297 1.4475297 0.64376199 255 0 0
1.3010677 1.4490685 0.63969135 255 0 0
1.2986057 1.4506074 0.63562065 255 0 0
1.2961435 1.4521463 0.63155001 255 0 0
1.2936815 1.453685 0.62747937 255 0 0
1.2912195 1.4552239 0.62340868 255 0 0
1.2887574 1.4567628 0.61933804 255 0 0
1.2862954 1.4583017 0.6152674 255 0 0
1.2838334 1.4598405 0.6111967 255 0 0
1.2813712 1.4613794 0.60712606 255 0 0
1.2789092 1.4629183 0.60305536 255 0 0
1.2764472 1.4644572 0.59898472 255 0 0
1.2739851 1.465996 0.59491408 255 0 0
1.2715231 1.4675349 0.59084338 255 0 0
1.2690611 1.4690738 0.58677274 255 0 0
1.2665989 1.4706126 0.5827021 255 0 0
1.2641369 1.4721515 0.57863146 255 0 0
1.2616749 1.4736904 0.57456076 255 0 0
1.4093009 1.3860148 0.82061934 255 0 0
1.4068389 1.3875537 0.81654871 255 0 0
1.4043767 1.3890926 0.81247801 255 0 0
1.4019147 1.3906314 0.80840737 255 0 0
1.3994527 1.3921703 0.80433667 255 0 0
1.3969907 1.3937092 0.80026603 255 0 0
1.3945286 1.3952481 0.79619539 255 0 0
1.3920666 1.3967869 0.79212475 255 0 0
1.3896046 1.3983258 0.78805405 255 0 0
1.3871424 1.3998647 0.78398341 255 0 0
1.3846804 1.4014035 0.77991271 255 0 0
1.3822184 1.4029424 0.77584207 255 0 0
1.3797563 1.4044812 0.77177143 255 0 0
1.3772943 1.40602 0.76770073 255 0 0
1.3748322 1.4075589 0.76363009 255 0 0
1.3723701 1.4090978 0.75955945 255 0 0
1.3699081 1.4106367 0.75548875 255 0 0
1.3674461 1.4121755 0.75141811 255 0 0
1.364984 1.4137144 0.74734747 255 0 0
1.3625219 1.4152533 0.74327677 255 0 0
1.3600599 1.4167922 0.73920614 255 0 0
1.3575978 1.418331 0.7351355 255 0 0
1.3551358 1.4198699 0.7310648 255 0 0
1.3526738 1.4214088 0.72699416 255 0 0
1.3502117 1.4229476 0.72292352 255 0 0
1.3477497 1.4244865 0.71885282 255 0 0
1.3452876 1.4260254 0.71478218 255 0 0
1.3428255 1.4275641 0.71071154 255 0 0
1.3403635 1.429103 0.70664084 255 0 0
1.3379015 1.4306419 0.7025702 255 0 0
1.3354394 1.4321808 0.69849956 255 0 0
1.3329773 1.4337196 0.69442886 255 0 0
1.3305153 1.4352585 0.69035822 255 0 0
1.3280532 1.4367974 0.68628758 255 0 0
1.3255912 1.4383363 0.68221688 255 0 0
1.3231292 1.4398751 0.67814624 255 0 0
1.3206671 1.441414 0.6740756 255 0 0
1.3182051 1.4429529 0.6700049 255 0 0
1.315743 1.4444917 0.66593426 255 0 0
1.3132809 1.4460306 0.66186363 255 0 0
1.3108189 1.4475695 0.65779293 255 0 0
1.3083569 1.4491084 0.65372229 255 0 0
1.3058949 1.4506471 0.64965165 255 0 0
1.3034327 1.452186 0.64558095 255 0 0
1.3009707 1.4537249 0.64151031 255 0 0
1.2985086 1.4552637 0.63743967 255 0 0
1.2960466 1.4568026 0.63336897 255 0 0
1.2935846 1.4583415 0.62929833 255 0 0
1.2911224 1.4598804 0.62522763 255 0 0
1.2886604 1.4614192 0.62115699 255 0 0
1.2861984 1.4629581 0.61708635 255 0 0
1.2837363 1.464497 0.61301565 255 0 0
1.2812743 1.4660358 0.60894501 255 0 0
1.2788123 1.4675747 0.60487437 255 0 0
1.2763501 1.4691136 0.60080367 255 0 0
1.2738881 1.4706525 0.59673303 255 0 0
1.2714261 1.4721913 0.59266233 255 0 0
1.2689641 1.4737302 0.58859169 255 0 0
1.266502 1.4752691 0.58452106 255 0 0
1.26404 1.4768078 0.58045042 255 0 0
1.2615778 1.4783467 0.57637972 255 0 0
1.4092039 1.3906713 0.8224383 255 0 0
1.4067419 1.3922101 0.81836766 255 0 0
1.4042798 1.393749 0.81429696 255 0 0
1.4018178 1.3952879 0.81022632 255 0 0
1.3993558 1.3968267 0.80615568 255 0 0
1.3968937 1.3983656 0.80208504 255 0 0
1.3944316 1.3999045 0.79801434 255 0 0
1.3919696 1.4014432 0.7939437 255 0 0
1.3895075 1.4029821 0.789873 255 0 0
1.3870455 1.404521 0.78580236 255 0 0
1.3845835 1.4060599 0.78173172 255 0 0
1.3821213 1.4075987 0.77766103 255 0 0
1.3796593 1.4091376 0.77359039 255 0 0
1.3771973 1.4106765 0.76951969 255 0 0
1.3747352 1.4122154 0.76544905 255 0 0
1.3722732 1.4137542 0.76137841 255 0 0
1.3698111 1.4152931 0.75730771 255 0 0
1.367349 1.416832 0.75323707 255 0 0
1.364887 1.4183708 0.74916643 255 0 0
1.362425 1.4199097 0.74509573 255 0 0
1.3599629 1.4214486 0.74102509 255 0 0
1.3575008 1.4229875 0.73695445 255 0 0
1.3550388 1.4245262 0.73288375 255 0 0
1.3525767 1.4260652 0.72881311 255 0 0
1.3501147 1.427604 0.72474247 255 0 0
1.3476527 1.4291428 0.72067177 255 0 0
1.3451906 1.4306817 0.71660113 255 0 0
1.3427286 1.4322206 0.71253049 255 0 0
1.3402665 1.4337595 0.70845979 255 0 0
1.3378044 1.4352983 0.70438915 255 0 0
1.3353424 1.4368372 0.70031852 255 0 0
1.3328804 1.4383761 0.69624782 255 0 0
1.3304183 1.4399149 0.69217718 255 0 0
1.3279562 1.4414538 0.68810654 255 0 0
1.3254942 1.4429927 0.68403584 255 0 0
1.3230321 1.4445316 0.6799652 255 0 0
1.3205701 1.4460704 0.67589456 255 0 0
1.3181081 1.4476093 0.67182386 255 0 0
1.3156461 1.4491482 0.66775322 255 0 0
1.313184 1.4506869 0.66368258 255 0 0
1.3107219 1.4522258 0.65961188 255 0 0
1.3082598 1.4537647 0.65554124 255 0 0
1.3057978 1.4553035 0.6514706 255 0 0
1.3033358 1.4568424 0.6473999 255 0 0
1.3008738 1.4583813 0.64332926 255 0 0
1.2984116 1.4599202 0.63925862 255 0 0
1.2959496 1.461459 0.63518792 255 0 0
1.2934875 1.4629979 0.63111728 255 0 0
1.2910255 1.4645368 0.62704659 255 0 0
1.2885635 1.4660757 0.62297595 255 0 0
1.2861013 1.4676145 0.61890531 255 0 0
1.2836393 1.4691534 0.61483461 255 0 0
1.2811773 1.4706923 0.61076397 255 0 0
1.2787153 1.4722311 0.60669333 255 0 0
1.2762532 1.4737699 0.60262263 255 0 0
1.2737912 1.4753088 0.59855199 255 0 0
1.2713292 1.4768476 0.59448135 255 0 0
1.268867 1.4783865 0.59041065 255 0 0
1.266405 1.4799254 0.58634001 255 0 0
1.263943 1.4814643 0.58226937 255 0 0
1.2614809 1.4830031 0.57819867 255 0 0
1.409107 1.3953277 0.82425725 255 0 0
1.4066448 1.3968666 0.82018661 255 0 0
1.4041828 1.3984053 0.81611592 255 0 0
1.4017208 1.3999443 0.81204528 255 0 0
1.3992587 1.4014831 0.80797464 255 0 0
1.3967967 1.4030219 0.80390394 255 0 0
1.3943347 1.4045608 0.7998333 255 0 0
1.3918726 1.4060997 0.79576266 255 0 0
1.3894105 1.4076385 0.79169202 255 0 0
1.3869485 1.4091774 0.78762132 255 0 0
1.3844864 1.4107163 0.78355068 255 0 0
1.3820244 1.4122552 0.77947998 255 0 0
1.3795624 1.413794 0.77540934 255 0 0
1.3771002 1.4153329 0.7713387 255 0 0
1.3746382 1.4168718 0.767268 255 0 0
1.3721762 1.4184107 0.76319736 255 0 0
1.3697141 1.4199495 0.75912666 255 0 0
1.3672521 1.4214884 0.75505602 255 0 0
1.3647901 1.4230273 0.75098538 255 0 0
1.3623279 1.424566 0.74691468 255 0 0
1.3598659 1.4261049 0.74284405 255 0 0
1.3574039 1.4276438 0.73877341 255 0 0
1.3549418 1.4291826 0.73470271 255 0 0
1.3524798 1.4307215 0.73063207 255 0 0
1.3500178 1.4322604 0.72656143 255 0 0
1.3475556 1.4337993 0.72249073 255 0 0
1.3450936 1.4353381 0.71842009 255 0 0
1.3426316 1.436877 0.71434945 255 0 0
1.3401695 1.4384159 0.71027875 255 0 0
1.3377075 1.4399548 0.70620811 255 0 0
1.3352454 1.4414936 0.70213747 255 0 0
1.3327833 1.4430325 0.69806677 255 0 0
1.3303213 1.4445714 0.69399613 255 0 0
1.3278593 1.4461102 0.68992549 255 0 0
1.3253973 1.447649 0.68585479 255 0 0
1.3229352 1.4491879 0.68178415 255 0 0
1.3204732 1.4507267 0.67771351 255 0 0
1.318011 1.4522656 0.67364281 255 0 0
1.315549 1.4538045 0.66957217 255 0 0
1.313087 1.4553434 0.66550153 255 0 0
1.310625 1.4568822 0.66143084 255 0 0
1.3081629 1.4584211 0.6573602 255 0 0
1.3057008 1.45996 0.65328956 255 0 0
1.3032387 1.4614989 0.64921886 255 0 0
1.3007767 1.4630377 0.64514822 255 0 0
1.2983147 1.4645766 0.64107758 255 0 0
1.2958527 1.4661155 0.63700688 255 0 0
1.2933906 1.4676543 0.63293624 255 0 0
1.2909285 1.4691932 0.6288656 255 0 0
1.2884665 1.4707321 0.6247949 255 0 0
1.2860044 1.472271 0.62072426 255 0 0
1.2835424 1.4738097 0.61665356 255 0 0
1.2810804 1.4753486 0.61258292 255 0 0
1.2786183 1.4768875 0.60851228 255 0 0
1.2761562 1.4784263 0.60444158 255 0 0
1.2736942 1.4799652 0.60037094 255 0 0
1.2712321 1.4815041 0.5963003 255 0 0
1.2687701 1.483043 0.5922296 255 0 0
1.2663081 1.4845818 0.58815897 255 0 0
1.2638459 1.4861207 0.58408833 255 0 0
1.2613839 1.4876596 0.58001769 255 0 0
1.4090099 1.399984 0.82607621 255 0 0
1.4065479 1.4015229 0.82200557 255 0 0
1.4040859 1.4030617 0.81793487 255 0 0
1.4016238 1.4046006 0.81386423 255 0 0
1.3991617 1.4061395 0.80979359 255 0 0
1.3966997 1.4076784 0.80572295 255 0 0
1.3942376 1.4092172 0.80165231 255 0 0
1.3917756 1.4107561 0.79758161 255 0 0
1.3893136 1.412295 0.79351097 255 0 0
1.3868515 1.4138339 0.78944027 255 0 0
1.3843894 1.4153727 0.78536963 255 0 0
1.3819274 1.4169116 0.781299 255 0 0
1.3794653 1.4184505 0.7772283 255 0 0
1.3770033 1.4199893 0.77315766 255 0 0
1.3745413 1.4215281 0.76908696 255 0 0
1.3720791 1.4230671 0.76501632 255 0 0
1.3696171 1.4246058 0.76094568 255 0 0
1.3671551 1.4261447 0.75687498 255 0 0
1.364693 1.4276836 0.75280434 255 0 0
1.362231 1.4292225 0.74873364 255 0 0
1.359769 1.4307613 0.744663 255 0 0
1.3573068 1.4323002 0.74059236 255 0 0
1.3548448 1.4338391 0.73652172 255 0 0
1.3523828 1.435378 0.73245102 255 0 0
1.3499207 1.4369168 0.72838038 255 0 0
1.3474587 1.4384557 0.72430968 255 0 0
1.3449967 1.4399946 0.72023904 255 0 0
1.3425345 1.4415334 0.7161684 255 0 0
1.3400725 1.4430723 0.71209776 255 0 0
1.3376105 1.4446112 0.70802706 255 0 0
1.3351485 1.4461501 0.70395643 255 0 0
1.3326864 1.4476888 0.69988573 255 0 0
1.3302243 1.4492277 0.69581509 255 0 0
1.3277622 1.4507666 0.69174445 255 0 0
1.3253002 1.4523054 0.68767381 255 0 0
1.3228382 1.4538443 0.68360311 255 0 0
1.3203762 1.4553832 0.67953247 255 0 0
1.3179141 1.4569221 0.67546177 255 0 0
1.3154521 1.4584609 0.67139113 255 0 0
1.31299 1.4599998 0.66732049 255 0 0
1.3105279 1.4615387 0.66324985 255 0 0
1.3080659 1.4630775 0.65917915 255 0 0
1.3056039 1.4646164 0.65510851 255 0 0
1.3031418 1.4661553 0.65103787 255 0 0
1.3006797 1.4676942 0.64696717 255 0 0
1.2982177 1.469233 0.64289653 255 0 0
1.2957556 1.4707718 0.63882583 255 0 0
1.2932936 1.4723107 0.63475519 255 0 0
1.2908316 1.4738495 0.63068455 255 0 0
1.2883695 1.4753884 0.62661386 255 0 0
1.2859074 1.4769273 0.62254322 255 0 0
1.2834454 1.4784662 0.61847258 255 0 0
1.2809833 1.480005 0.61440188 255 0 0
1.2785213 1.4815439 0.61033124 255 0 0
1.2760593 1.4830828 0.60626054 255 0 0
1.2735972 1.4846216 0.6021899 255 0 0
1.2711351 1.4861605 0.59811926 255 0 0
1.2686731 1.4876994 0.59404862 255 0 0
1.266211 1.4892383 0.58997792 255 0 0
1.263749 1.4907771 0.58590728 255 0 0
1.261287 1.492316 0.58183664 255 0 0
1.4089129 1.4046404 0.82789516 255 0 0
1.4064509 1.4061793 0.82382452 255 0 0
1.4039888 1.4077182 0.81975389 255 0 0
1.4015268 1.4092571 0.81568319 255 0 0
1.3990648 1.4107959 0.81161255 255 0 0
1.3966027 1.4123348 0.80754191 255 0 0
1.3941407 1.4138737 0.80347121 255 0 0
1.3916786 1.4154125 0.79940057 255 0 0
1.3892165 1.4169514 0.79532993 255 0 0
1.3867545 1.4184903 0.79125923 255 0 0
1.3842925 1.4200292 0.78718859 255 0 0
1.3818305 1.4215679 0.78311789 255 0 0
1.3793683 1.4231068 0.77904725 255 0 0
1.3769063 1.4246457 0.77497661 255 0 0
1.3744442 1.4261845 0.77090597 255 0 0
1.3719822 1.4277234 0.76683527 255 0 0
1.3695202 1.4292623 0.76276463 255 0 0
1.367058 1.4308012 0.75869393 255 0 0
1.364596 1.43234 0.75462329 255 0 0
1.362134 1.4338789 0.75055265 255 0 0
1.359672 1.4354178 0.74648196 255 0 0
1.3572099 1.4369566 0.74241132 255 0 0
1.3547479 1.4384955 0.73834068 255 0 0
1.3522859 1.4400344 0.73426998 255 0 0
1.3498237 1.4415733 0.73019934 255 0 0
1.3473617 1.4431121 0.7261287 255 0 0
1.3448997 1.4446509 0.722058 255 0 0
1.3424376 1.4461898 0.71798736 255 0 0
1.3399756 1.4477286 0.71391672 255 0 0
1.3375134 1.4492675 0.70984602 255 0 0
1.3350514 1.4508064 0.70577538 255 0 0
1.3325894 1.4523453 0.70170474 255 0 0
1.3301274 1.4538841 0.69763404 255 0 0
1.3276653 1.455423 0.6935634 255 0 0
1.3252033 1.4569619 0.68949276 255 0 0
1.3227412 1.4585007 0.68542206 255 0 0
1.3202791 1.4600396 0.68135142 255 0 0
1.3178171 1.4615785 0.67728078 255 0 0
1.3153551 1.4631174 0.67321008 255 0 0
1.312893 1.4646562 0.66913944 255 0 0
1.310431 1.4661951 0.66506881 255 0 0
1.3079689 1.4677339 0.66099811 255 0 0
1.3055068 1.4692727 0.65692747 255 0 0
1.3030448 1.4708116 0.65285683 255 0 0
1.3005828 1.4723505 0.64878613 255 0 0
1.2981207 1.4738894 0.64471549 255 0 0
1.2956586 1.4754282 0.64064485 255 0 0
1.2931966 1.4769671 0.63657415 255 0 0
1.2907345 1.478506 0.63250351 255 0 0
1.2882725 1.4800448 0.62843281 255 0 0
1.2858105 1.4815837 0.62436217 255 0 0
1.2833484 1.4831226 0.62029153 255 0 0
1.2808863 1.4846615 0.61622083 255 0 0
1.2784243 1.4862003 0.61215019 255 0 0
1.2759622 1.4877392 0.60807955 255 0 0
1.2735002 1.4892781 0.60400885 255 0 0
1.2710382 1.490817 0.59993821 255 0 0
1.2685761 1.4923558 0.59586757 255 0 0
1.266114 1.4938946 0.59179688 255 0 0
1.263652 1.4954334 0.58772624 255 0 0
1.2611899 1.4969723 0.5836556 255 0 0
1.408816 1.4092969 0.82971412 255 0 0
1.406354 1.4108357 0.82564348 255 0 0
1.4038918 1.4123746 0.82157278 255 0 0
1.4014298 1.4139135 0.81750214 255 0 0
1.3989677 1.4154524 0.8134315 255 0 0
1.3965057 1.4169912 0.80936086 255 0 0
1.3940437 1.41853 0.80529022 255 0 0
1.3915817 1.4200689 0.80121952 255 0 0
1.3891196 1.4216077 0.79714888 255 0 0
1.3866575 1.4231466 0.79307818 255 0 0
1.3841954 1.4246855 0.78900754 255 0 0
1.3817334 1.4262244 0.7849369 255 0 0
1.3792714 1.4277632 0.78086621 255 0 0
1.3768094 1.4293021 0.77679557 255 0 0
1.3743472 1.430841 0.77272487 255 0 0
1.3718852 1.4323798 0.76865423 255 0 0
1.3694232 1.4339187 0.76458359 255 0 0
1.3669611 1.4354576 0.76051289 255 0 0
1.3644991 1.4369965 0.75644225 255 0 0
1.3620369 1.4385353 0.75237161 255 0 0
1.3595749 1.4400742 0.74830091 255 0 0
1.3571129 1.4416131 0.74423027 255 0 0
1.3546509 1.443152 0.74015963 255 0 0
1.3521888 1.4446907 0.73608893 255 0 0
1.3497268 1.4462296 0.73201829 255 0 0
1.3472648 1.4477684 0.72794765 255 0 0
1.3448026 1.4493073 0.72387695 255 0 0
1.3423406 1.4508462 0.71980631 255 0 0
1.3398786 1.4523851 0.71573567 255 0 0
1.3374165 1.4539239 0.71166503 255 0 0
1.3349545 1.4554628 0.70759434 255 0 0
1.3324924 1.4570017 0.7035237 255 0 0
1.3300303 1.4585406 0.699453 255 0 0
1.3275683 1.4600794 0.69538236 255 0 0
1.3251063 1.4616183 0.69131172 255 0 0
1.3226442 1.4631572 0.68724102 255 0 0
1.3201822 1.464696 0.68317038 255 0 0
1.3177202 1.4662349 0.67909974 255 0 0
1.315258 1.4677737 0.67502904 255 0 0
1.312796 1.4693125 0.6709584 255 0 0
1.310334 1.4708514 0.66688776 255 0 0
1.3078719 1.4723903 0.66281706 255 0 0
1.3054099 1.4739292 0.65874642 255 0 0
1.3029478 1.475468 0.65467578 255 0 0
1.3004857 1.4770069 0.65060508 255 0 0
1.2980237 1.4785458 0.64653444 255 0 0
1.2955617 1.4800847 0.6424638 255 0 0
1.2930996 1.4816235 0.6383931 255 0 0
1.2906375 1.4831624 0.63432246 255 0 0
1.2881755 1.4847013 0.63025182 255 0 0
1.2857134 1.4862401 0.62618113 255 0 0
1.2832514 1.487779 0.62211049 255 0 0
1.2807894 1.4893179 0.61803979 255 0 0
1.2783273 1.4908566 0.61396915 255 0 0
1.2758652 1.4923955 0.60989851 255 0 0
1.2734032 1.4939344 0.60582781 255 0 0
1.2709411 1.4954733 0.60175717 255 0 0
1.2684791 1.4970121 0.59768653 255 0 0
1.2660171 1.498551 0.59361583 255 0 0
1.263555 1.5000899 0.58954519 255 0 0
1.2610929 1.5016288 0.58547455 255 0 0
1.4087189 1.4139533 0.83153307 255 0 0
1.4062569 1.4154921 0.82746243 255 0 0
1.4037949 1.417031 0.8233918 255 0 0
1.4013329 1.4185698 0.81932116 255 0 0
1.3988708 1.4201087 0.81525046 255 0 0
1.3964088 1.4216475 0.81117982 255 0 0
