ply
format ascii 1.0
comment PCL generated
element vertex 1224
property float x
property float y
property float z
property uchar red
property uchar green
property uchar blue
element camera 0
property float view_px
property float view_py
property float view_pz
property float x_axisx
property float x_axisy
property float x_axisz
property float y_axisx
property float y_axisy
property float y_axisz
property float z_axisx
property float z_axisy
property float z_axisz
property float focal
property float scalex
property float scaley
property float centerx
property float centery
property int viewportx
property int viewporty
property float k1
property float k2
end_header
1.3323374 1.5811819 0.75670612 255 0 0
1.3308603 1.5821052 0.7542637 255 0 0
1.329383 1.5830284 0.75182128 255 0 0
1.3279058 1.5839518 0.74937892 255 0 0
1.3264285 1.5848751 0.7469365 255 0 0
1.3249513 1.5857984 0.74449414 255 0 0
1.323474 1.5867218 0.74205172 255 0 0
1.3219968 1.5876451 0.73960936 255 0 0
1.3205196 1.5885684 0.73716694 255 0 0
1.3190423 1.5894917 0.73472452 255 0 0
1.3175651 1.590415 0.73228216 255 0 0
1.316088 1.5913384 0.72983974 255 0 0
1.3146107 1.5922617 0.72739732 255 0 0
1.3131335 1.5931849 0.72495496 255 0 0
1.3116562 1.5941083 0.72251254 255 0 0
1.310179 1.5950316 0.72007018 255 0 0
1.3087018 1.5959549 0.71762776 255 0 0
1.3072245 1.5968783 0.7151854 255 0 0
1.3057473 1.5978016 0.71274298 255 0 0
1.30427 1.5987248 0.71030056 255 0 0
1.3027928 1.5996482 0.7078582 255 0 0
1.3013155 1.6005715 0.70541579 255 0 0
1.2998384 1.6014949 0.70297343 255 0 0
1.2983612 1.6024182 0.70053101 255 0 0
1.2968839 1.6033415 0.69808859 255 0 0
1.2954067 1.6042649 0.69564623 255 0 0
1.2939295 1.6051881 0.69320381 255 0 0
1.2924522 1.6061114 0.69076145 255 0 0
1.290975 1.6070348 0.68831903 255 0 0
1.2894977 1.6079581 0.68587661 255 0 0
1.2880206 1.6088814 0.68343425 255 0 0
1.2865434 1.6098047 0.68099183 255 0 0
1.2850661 1.610728 0.67854947 255 0 0
1.2835889 1.6116514 0.67610705 255 0 0
1.2821116 1.6125747 0.67366469 255 0 0
1.2806344 1.613498 0.67122227 255 0 0
1.2791572 1.6144214 0.66877985 255 0 0
1.2776799 1.6153446 0.66633749 255 0 0
1.2762027 1.6162679 0.66389507 255 0 0
1.2747254 1.6171913 0.66145271 255 0 0
1.2732482 1.6181146 0.65901029 255 0 0
1.2717711 1.6190379 0.65656787 255 0 0
1.2702938 1.6199613 0.65412551 255 0 0
1.2688166 1.6208845 0.65168309 255 0 0
1.2673393 1.6218078 0.64924067 255 0 0
1.2658621 1.6227312 0.64679831 255 0 0
1.2643849 1.6236545 0.64435589 255 0 0
1.2629076 1.6245779 0.64191347 255 0 0
1.2614304 1.6255012 0.63947111 255 0 0
1.2599531 1.6264244 0.63702869 255 0 0
1.4061408 1.5378097 0.87991726 255 0 0
1.4046636 1.538733 0.8774749 255 0 0
1.4031863 1.5396564 0.87503248 255 0 0
1.4017091 1.5405797 0.87259007 255 0 0
1.4002318 1.5415031 0.87014771 255 0 0
1.3987546 1.5424263 0.86770529 255 0 0
1.3972774 1.5433496 0.86526287 255 0 0
1.3958001 1.544273 0.86282045 255 0 0
1.3943229 1.5451963 0.86037809 255 0 0
1.3928456 1.5461196 0.85793567 255 0 0
1.3913684 1.547043 0.85549331 255 0 0
1.3898911 1.5479662 0.85305089 255 0 0
1.388414 1.5488895 0.85060847 255 0 0
1.3869368 1.5498129 0.84816611 255 0 0
1.3854595 1.5507362 0.84572369 255 0 0
1.3839823 1.5516596 0.84328127 255 0 0
1.3825051 1.5525829 0.84083891 255 0 0
1.3810278 1.5535061 0.83839655 255 0 0
1.3795506 1.5544295 0.83595413 255 0 0
1.3780733 1.5553528 0.83351171 255 0 0
1.3765961 1.5562761 0.83106935 255 0 0
1.375119 1.5571995 0.82862693 255 0 0
1.3736417 1.5581228 0.82618451 255 0 0
1.3721645 1.559046 0.82374215 255 0 0
1.3706872 1.5599694 0.82129973 255 0 0
1.36921 1.5608927 0.81885737 255 0 0
1.3677328 1.561816 0.81641495 255 0 0
1.3662555 1.5627394 0.81397259 255 0 0
1.3647783 1.5636626 0.81153017 255 0 0
1.363301 1.564586 0.80908775 255 0 0
1.3618238 1.5655093 0.80664539 255 0 0
1.3603466 1.5664326 0.80420297 255 0 0
1.3588694 1.567356 0.80176055 255 0 0
1.3573922 1.5682793 0.79931819 255 0 0
1.355915 1.5692025 0.79687583 255 0 0
1.3544377 1.5701259 0.79443341 255 0 0
1.3529605 1.5710492 0.791991 255 0 0
1.3514832 1.5719725 0.78954864 255 0 0
1.350006 1.5728959 0.78710622 255 0 0
1.3485287 1.5738192 0.7846638 255 0 0
1.3470515 1.5747424 0.78222144 255 0 0
1.3455744 1.5756658 0.77977902 255 0 0
1.3440971 1.5765891 0.77733666 255 0 0
1.3426199 1.5775125 0.77489424 255 0 0
1.3411427 1.5784358 0.77245188 255 0 0
1.3396654 1.5793591 0.77000946 255 0 0
1.3381882 1.5802824 0.76756704 255 0 0
1.3367109 1.5812057 0.76512468 255 0 0
1.3352337 1.582129 0.76268226 255 0 0
1.3337564 1.5830524 0.76023984 255 0 0
1.3322792 1.5839757 0.75779748 255 0 0
1.330802 1.5848989 0.75535506 255 0 0
1.3293247 1.5858223 0.7529127 255 0 0
1.3278476 1.5867456 0.75047028 255 0 0
1.3263704 1.587669 0.74802792 255 0 0
1.3248931 1.5885923 0.7455855 255 0 0
1.3234159 1.5895156 0.74314308 255 0 0
1.3219386 1.590439 0.74070072 255 0 0
1.3204614 1.5913622 0.7382583 255 0 0
1.3189842 1.5922855 0.73581588 255 0 0
1.3175069 1.5932089 0.73337352 255 0 0
1.3160297 1.5941322 0.7309311 255 0 0
1.3145525 1.5950555 0.72848874 255 0 0
1.3130753 1.5959789 0.72604632 255 0 0
1.3115981 1.5969021 0.72360396 255 0 0
1.3101208 1.5978254 0.72116154 255 0 0
1.3086436 1.5987488 0.71871912 255 0 0
1.3071663 1.5996721 0.71627676 255 0 0
1.3056891 1.6005955 0.71383435 255 0 0
1.3042119 1.6015188 0.71139193 255 0 0
1.3027346 1.602442 0.70894957 255 0 0
1.3012574 1.6033654 0.70650715 255 0 0
1.2997801 1.6042887 0.70406479 255 0 0
1.298303 1.605212 0.70162237 255 0 0
1.2968258 1.6061354 0.69918001 255 0 0
1.2953485 1.6070586 0.69673759 255 0 0
1.2938713 1.6079819 0.69429517 255 0 0
1.292394 1.6089053 0.69185281 255 0 0
1.2909168 1.6098286 0.68941039 255 0 0
1.2894396 1.6107519 0.68696803 255 0 0
1.2879623 1.6116753 0.68452561 255 0 0
1.2864852 1.6125985 0.68208325 255 0 0
1.285008 1.6135219 0.67964083 255 0 0
1.2835307 1.6144452 0.67719841 255 0 0
1.2820535 1.6153685 0.67475605 255 0 0
1.2805762 1.6162919 0.67231363 255 0 0
1.279099 1.6172152 0.66987127 255 0 0
1.2776217 1.6181384 0.66742885 255 0 0
1.2761445 1.6190618 0.66498643 255 0 0
1.2746673 1.6199851 0.66254407 255 0 0
1.27319 1.6209084 0.66010165 255 0 0
1.2717128 1.6218318 0.65765929 255 0 0
1.2702355 1.6227551 0.65521687 255 0 0
1.2687584 1.6236784 0.65277445 255 0 0
1.2672812 1.6246017 0.65033209 255 0 0
1.2658039 1.625525 0.64788967 255 0 0
1.2643267 1.6264484 0.64544725 255 0 0
1.2628495 1.6273717 0.64300489 255 0 0
1.2613722 1.6282949 0.64056247 255 0 0
1.259895 1.6292183 0.63812006 255 0 0
1.4060825 1.5406035 0.88100863 255 0 0
1.4046053 1.5415269 0.87856627 255 0 0
1.4031281 1.5424502 0.87612385 255 0 0
1.4016509 1.5433736 0.87368143 255 0 0
1.4001737 1.5442969 0.87123907 255 0 0
1.3986964 1.5452201 0.86879665 255 0 0
1.3972192 1.5461435 0.86635423 255 0 0
1.3957419 1.5470668 0.86391187 255 0 0
1.3942647 1.5479901 0.86146945 255 0 0
1.3927875 1.5489135 0.85902703 255 0 0
1.3913102 1.5498368 0.85658467 255 0 0
1.389833 1.5507601 0.85414225 255 0 0
1.3883557 1.5516834 0.85169983 255 0 0
1.3868785 1.5526067 0.84925747 255 0 0
1.3854014 1.5535301 0.84681511 255 0 0
1.3839241 1.5544534 0.84437269 255 0 0
1.3824469 1.5553766 0.84193027 255 0 0
1.3809696 1.5563 0.83948791 255 0 0
1.3794924 1.5572233 0.83704549 255 0 0
1.3780152 1.5581466 0.83460307 255 0 0
1.3765379 1.55907 0.83216071 255 0 0
1.3750607 1.5599933 0.82971829 255 0 0
1.3735834 1.5609165 0.82727593 255 0 0
1.3721062 1.5618399 0.82483351 255 0 0
1.3706291 1.5627632 0.82239115 255 0 0
1.3691518 1.5636866 0.81994873 255 0 0
1.3676746 1.5646099 0.81750631 255 0 0
1.3661973 1.5655332 0.81506395 255 0 0
1.3647201 1.5664566 0.81262153 255 0 0
1.3632429 1.5673798 0.81017911 255 0 0
1.3617656 1.5683031 0.80773675 255 0 0
1.3602884 1.5692265 0.80529439 255 0 0
1.3588111 1.5701498 0.80285197 255 0 0
1.3573339 1.5710731 0.80040956 255 0 0
1.3558567 1.5719965 0.7979672 255 0 0
1.3543795 1.5729197 0.79552478 255 0 0
1.3529023 1.573843 0.79308236 255 0 0
1.3514251 1.5747664 0.79064 255 0 0
1.3499478 1.5756897 0.78819764 255 0 0
1.3484706 1.5766129 0.78575522 255 0 0
1.3469933 1.5775363 0.7833128 255 0 0
1.3455161 1.5784596 0.78087044 255 0 0
1.3440388 1.579383 0.77842802 255 0 0
1.3425617 1.5803063 0.7759856 255 0 0
1.3410845 1.5812296 0.77354324 255 0 0
1.3396072 1.582153 0.77110082 255 0 0
1.33813 1.5830762 0.7686584 255 0 0
1.3366528 1.5839995 0.76621604 255 0 0
1.3351755 1.5849229 0.76377362 255 0 0
1.3336983 1.5858462 0.76133126 255 0 0
1.332221 1.5867695 0.75888884 255 0 0
1.3307438 1.5876929 0.75644648 255 0 0
1.3292665 1.5886161 0.75400406 255 0 0
1.3277893 1.5895395 0.75156164 255 0 0
1.3263121 1.5904628 0.74911928 255 0 0
1.3248349 1.5913861 0.74667686 255 0 0
1.3233577 1.5923095 0.74423444 255 0 0
1.3218805 1.5932328 0.74179208 255 0 0
1.3204032 1.594156 0.73934966 255 0 0
1.318926 1.5950794 0.7369073 255 0 0
1.3174487 1.5960027 0.73446488 255 0 0
1.3159715 1.596926 0.73202252 255 0 0
1.3144943 1.5978494 0.7295801 255 0 0
1.313017 1.5987726 0.72713768 255 0 0
1.3115399 1.599696 0.72469532 255 0 0
1.3100626 1.6006193 0.72225291 255 0 0
1.3085854 1.6015426 0.71981049 255 0 0
1.3071082 1.602466 0.71736813 255 0 0
1.3056309 1.6033893 0.71492571 255 0 0
1.3041537 1.6043125 0.71248335 255 0 0
1.3026764 1.6052359 0.71004093 255 0 0
1.3011992 1.6061592 0.70759857 255 0 0
1.299722 1.6070825 0.70515615 255 0 0
1.2982447 1.6080059 0.70271373 255 0 0
1.2967675 1.6089292 0.70027137 255 0 0
1.2952904 1.6098524 0.69782895 255 0 0
1.2938131 1.6107758 0.69538659 255 0 0
1.2923359 1.6116991 0.69294417 255 0 0
1.2908586 1.6126225 0.69050181 255 0 0
1.2893814 1.6135458 0.68805939 255 0 0
1.2879041 1.6144691 0.68561697 255 0 0
1.2864269 1.6153924 0.68317461 255 0 0
1.2849497 1.6163157 0.68073219 255 0 0
1.2834724 1.617239 0.67828983 255 0 0
1.2819953 1.6181624 0.67584741 255 0 0
1.2805181 1.6190857 0.67340499 255 0 0
1.2790408 1.6200089 0.67096263 255 0 0
1.2775636 1.6209323 0.66852021 255 0 0
1.2760863 1.6218556 0.66607785 255 0 0
1.2746091 1.6227789 0.66363543 255 0 0
1.2731318 1.6237023 0.66119301 255 0 0
1.2716546 1.6246256 0.65875065 255 0 0
1.2701774 1.625549 0.65630823 255 0 0
1.2687001 1.6264722 0.65386587 255 0 0
1.2672229 1.6273955 0.65142345 255 0 0
1.2657456 1.6283189 0.64898103 255 0 0
1.2642685 1.6292422 0.64653862 255 0 0
1.2627913 1.6301655 0.64409626 255 0 0
1.261314 1.6310889 0.64165384 255 0 0
1.2598368 1.6320121 0.63921142 255 0 0
1.4060243 1.5433974 0.88210005 255 0 0
1.4045471 1.5443207 0.87965763 255 0 0
1.4030699 1.5452441 0.87721521 255 0 0
1.4015926 1.5461674 0.87477279 255 0 0
1.4001155 1.5470906 0.87233043 255 0 0
1.3986382 1.548014 0.86988801 255 0 0
1.397161 1.5489373 0.86744559 255 0 0
1.3956838 1.5498606 0.86500323 255 0 0
1.3942065 1.550784 0.86256081 255 0 0
1.3927293 1.5517073 0.86011839 255 0 0
1.391252 1.5526307 0.85767603 255 0 0
1.3897748 1.5535539 0.85523367 255 0 0
1.3882976 1.5544772 0.85279125 255 0 0
1.3868203 1.5554006 0.85034883 255 0 0
1.3853431 1.5563239 0.84790647 255 0 0
1.3838658 1.5572472 0.84546405 255 0 0
1.3823887 1.5581706 0.84302163 255 0 0
1.3809115 1.5590938 0.84057927 255 0 0
1.3794342 1.5600171 0.83813685 255 0 0
1.377957 1.5609405 0.83569449 255 0 0
1.3764797 1.5618638 0.83325207 255 0 0
1.3750025 1.5627871 0.83080971 255 0 0
1.3735253 1.5637105 0.82836729 255 0 0
1.372048 1.5646337 0.82592487 255 0 0
1.3705708 1.5655571 0.82348251 255 0 0
1.3690937 1.5664804 0.82104009 255 0 0
1.3676164 1.5674037 0.81859773 255 0 0
1.3661392 1.5683271 0.81615531 255 0 0
1.3646619 1.5692503 0.81371295 255 0 0
1.3631847 1.5701736 0.81127053 255 0 0
1.3617074 1.571097 0.80882812 255 0 0
1.3602302 1.5720203 0.80638576 255 0 0
1.358753 1.5729436 0.80394334 255 0 0
1.3572757 1.573867 0.80150092 255 0 0
1.3557985 1.5747902 0.79905856 255 0 0
1.3543212 1.5757135 0.79661614 255 0 0
1.3528441 1.5766369 0.79417378 255 0 0
1.3513669 1.5775602 0.79173136 255 0 0
1.3498896 1.5784836 0.789289 255 0 0
1.3484124 1.5794069 0.78684658 255 0 0
1.3469352 1.5803301 0.78440416 255 0 0
1.3454579 1.5812535 0.7819618 255 0 0
1.3439807 1.5821768 0.77951938 255 0 0
1.3425034 1.5831001 0.77707702 255 0 0
1.3410262 1.5840235 0.7746346 255 0 0
1.3395491 1.5849468 0.77219224 255 0 0
1.3380718 1.58587 0.76974982 255 0 0
1.3365946 1.5867934 0.7673074 255 0 0
1.3351173 1.5877167 0.76486504 255 0 0
1.3336401 1.5886401 0.76242262 255 0 0
1.3321629 1.5895634 0.7599802 255 0 0
1.3306856 1.5904866 0.75753784 255 0 0
1.3292084 1.59141 0.75509542 255 0 0
1.3277311 1.5923333 0.75265306 255 0 0
1.3262539 1.5932566 0.75021064 255 0 0
1.3247766 1.59418 0.74776822 255 0 0
1.3232994 1.5951033 0.74532586 255 0 0
1.3218223 1.5960265 0.74288344 255 0 0
1.320345 1.5969499 0.74044108 255 0 0
1.3188678 1.5978732 0.73799866 255 0 0
1.3173906 1.5987966 0.73555624 255 0 0
1.3159133 1.5997199 0.73311388 255 0 0
1.3144361 1.6006432 0.73067147 255 0 0
1.3129588 1.6015666 0.72822905 255 0 0
1.3114816 1.6024898 0.72578669 255 0 0
1.3100045 1.6034131 0.72334427 255 0 0
1.3085272 1.6043365 0.72090191 255 0 0
1.30705 1.6052598 0.71845949 255 0 0
1.3055727 1.6061831 0.71601713 255 0 0
1.3040955 1.6071064 0.71357471 255 0 0
1.3026183 1.6080297 0.71113229 255 0 0
1.301141 1.608953 0.70868993 255 0 0
1.2996638 1.6098764 0.70624751 255 0 0
1.2981865 1.6107997 0.70380515 255 0 0
1.2967093 1.6117231 0.70136273 255 0 0
1.2952321 1.6126463 0.69892037 255 0 0
1.2937549 1.6135696 0.69647795 255 0 0
1.2922777 1.614493 0.69403553 255 0 0
1.2908005 1.6154163 0.69159317 255 0 0
1.2893232 1.6163396 0.68915075 255 0 0
1.287846 1.617263 0.68670839 255 0 0
1.2863687 1.6181862 0.68426597 255 0 0
1.2848915 1.6191095 0.68182355 255 0 0
1.2834142 1.6200329 0.67938119 255 0 0
1.281937 1.6209562 0.67693877 255 0 0
1.2804599 1.6218795 0.67449641 255 0 0
1.2789826 1.6228029 0.67205399 255 0 0
1.2775054 1.6237261 0.66961163 255 0 0
1.2760282 1.6246495 0.66716921 255 0 0
1.2745509 1.6255728 0.66472679 255 0 0
1.2730737 1.6264961 0.66228443 255 0 0
1.2715964 1.6274195 0.65984201 255 0 0
1.2701192 1.6283427 0.65739965 255 0 0
1.2686419 1.629266 0.65495723 255 0 0
1.2671647 1.6301894 0.65251482 255 0 0
1.2656875 1.6311127 0.6500724 255 0 0
1.2642102 1.632036 0.64763004 255 0 0
1.262733 1.6329594 0.64518762 255 0 0
1.2612559 1.6338826 0.6427452 255 0 0
1.2597786 1.634806 0.64030284 255 0 0
1.4059662 1.5461912 0.88319141 255 0 0
1.4044889 1.5471146 0.88074899 255 0 0
1.4030117 1.5480379 0.87830663 255 0 0
1.4015344 1.5489612 0.87586421 255 0 0
1.4000572 1.5498846 0.87342179 255 0 0
1.39858 1.5508078 0.87097943 255 0 0
1.3971028 1.5517312 0.86853701 255 0 0
1.3956256 1.5526545 0.86609459 255 0 0
1.3941483 1.5535778 0.86365223 255 0 0
1.3926711 1.5545012 0.86120981 255 0 0
1.3911939 1.5554245 0.85876739 255 0 0
1.3897166 1.5563477 0.85632503 255 0 0
1.3882394 1.5572711 0.85388261 255 0 0
1.3867621 1.5581944 0.85144019 255 0 0
1.3852849 1.5591177 0.84899783 255 0 0
1.3838077 1.5600411 0.84655541 255 0 0
1.3823304 1.5609643 0.84411305 255 0 0
1.3808532 1.5618876 0.84167063 255 0 0
1.3793761 1.562811 0.83922827 255 0 0
1.3778988 1.5637343 0.83678585 255 0 0
1.3764216 1.5646577 0.83434343 255 0 0
1.3749443 1.565581 0.83190107 255 0 0
1.3734671 1.5665042 0.82945865 255 0 0
1.3719898 1.5674276 0.82701629 255 0 0
1.3705126 1.5683509 0.82457387 255 0 0
1.3690354 1.5692742 0.82213151 255 0 0
1.3675582 1.5701976 0.8196891 255 0 0
1.366081 1.5711209 0.81724668 255 0 0
1.3646038 1.5720441 0.81480432 255 0 0
1.3631265 1.5729675 0.8123619 255 0 0
1.3616493 1.5738908 0.80991948 255 0 0
1.360172 1.5748141 0.80747712 255 0 0
1.3586948 1.5757375 0.8050347 255 0 0
1.3572176 1.5766608 0.80259234 255 0 0
1.3557403 1.5775841 0.80014992 255 0 0
1.3542631 1.5785074 0.79770756 255 0 0
1.3527858 1.5794307 0.79526514 255 0 0
1.3513087 1.5803541 0.79282272 255 0 0
1.3498315 1.5812774 0.79038036 255 0 0
1.3483542 1.5822006 0.78793794 255 0 0
1.346877 1.583124 0.78549558 255 0 0
1.3453997 1.5840473 0.78305316 255 0 0
1.3439225 1.5849706 0.7806108 255 0 0
1.3424453 1.585894 0.77816838 255 0 0
1.340968 1.5868173 0.77572596 255 0 0
1.3394908 1.5877407 0.7732836 255 0 0
1.3380136 1.5886639 0.77084118 255 0 0
1.3365364 1.5895872 0.76839876 255 0 0
1.3350592 1.5905106 0.7659564 255 0 0
1.3335819 1.5914339 0.76351398 255 0 0
1.3321047 1.5923572 0.76107162 255 0 0
1.3306274 1.5932806 0.7586292 255 0 0
1.3291502 1.5942038 0.75618684 255 0 0
1.327673 1.5951271 0.75374442 255 0 0
1.3261957 1.5960505 0.751302 255 0 0
1.3247185 1.5969738 0.74885964 255 0 0
1.3232412 1.5978971 0.74641722 255 0 0
1.321764 1.5988204 0.7439748 255 0 0
1.3202869 1.5997437 0.74153244 255 0 0
1.3188096 1.6006671 0.73909003 255 0 0
1.3173324 1.6015904 0.73664767 255 0 0
1.3158551 1.6025137 0.73420525 255 0 0
1.3143779 1.6034371 0.73176283 255 0 0
1.3129007 1.6043603 0.72932047 255 0 0
1.3114234 1.6052836 0.72687805 255 0 0
1.3099462 1.606207 0.72443569 255 0 0
1.3084689 1.6071303 0.72199327 255 0 0
1.3069918 1.6080536 0.71955085 255 0 0
1.3055146 1.608977 0.71710849 255 0 0
1.3040373 1.6099002 0.71466607 255 0 0
1.3025601 1.6108236 0.71222371 255 0 0
1.3010828 1.6117469 0.70978129 255 0 0
1.2996056 1.6126702 0.70733893 255 0 0
1.2981284 1.6135936 0.70489651 255 0 0
1.2966511 1.6145169 0.70245409 255 0 0
1.2951739 1.6154401 0.70001173 255 0 0
1.2936966 1.6163635 0.69756931 255 0 0
1.2922194 1.6172868 0.69512695 255 0 0
1.2907423 1.6182101 0.69268453 255 0 0
1.289265 1.6191335 0.69024211 255 0 0
1.2877878 1.6200567 0.68779975 255 0 0
1.2863106 1.62098 0.68535733 255 0 0
1.2848333 1.6219034 0.68291497 255 0 0
1.2833561 1.6228267 0.68047255 255 0 0
1.2818788 1.62375 0.67803013 255 0 0
1.2804016 1.6246734 0.67558777 255 0 0
1.2789245 1.6255966 0.67314535 255 0 0
1.2774472 1.62652 0.67070299 255 0 0
1.27597 1.6274433 0.66826057 255 0 0
1.2744927 1.6283666 0.66581821 255 0 0
1.2730155 1.62929 0.66337579 255 0 0
1.2715383 1.6302133 0.66093338 255 0 0
1.270061 1.6311365 0.65849102 255 0 0
1.2685838 1.6320599 0.6560486 255 0 0
1.2671065 1.6329832 0.65360618 255 0 0
1.2656293 1.6339066 0.65116382 255 0 0
1.2641521 1.6348299 0.6487214 255 0 0
1.2626748 1.6357532 0.64627898 255 0 0
1.2611976 1.6366765 0.64383662 255 0 0
1.2597203 1.6375998 0.6413942 255 0 0
1.405908 1.5489851 0.88428277 255 0 0
1.4044307 1.5499084 0.88184035 255 0 0
1.4029535 1.5508317 0.87939799 255 0 0
1.4014763 1.5517551 0.87695557 255 0 0
1.399999 1.5526783 0.87451315 255 0 0
1.3985218 1.5536017 0.87207079 255 0 0
1.3970445 1.554525 0.86962837 255 0 0
1.3955673 1.5554483 0.86718595 255 0 0
1.3940901 1.5563717 0.86474359 255 0 0
1.3926129 1.557295 0.86230117 255 0 0
1.3911357 1.5582182 0.85985875 255 0 0
1.3896585 1.5591416 0.85741639 255 0 0
1.3881812 1.5600649 0.85497397 255 0 0
1.386704 1.5609882 0.85253161 255 0 0
1.3852267 1.5619116 0.85008919 255 0 0
1.3837495 1.5628349 0.84764683 255 0 0
1.3822722 1.5637583 0.84520441 255 0 0
1.380795 1.5646815 0.84276199 255 0 0
1.3793178 1.5656048 0.84031963 255 0 0
1.3778406 1.5665282 0.83787721 255 0 0
1.3763634 1.5674515 0.83543485 255 0 0
1.3748862 1.5683748 0.83299243 255 0 0
1.3734089 1.5692981 0.83055007 255 0 0
1.3719317 1.5702214 0.82810766 255 0 0
1.3704544 1.5711447 0.82566524 255 0 0
1.3689772 1.5720681 0.82322288 255 0 0
1.3674999 1.5729914 0.82078046 255 0 0
1.3660228 1.5739146 0.81833804 255 0 0
1.3645456 1.574838 0.81589568 255 0 0
1.3630683 1.5757613 0.81345326 255 0 0
1.3615911 1.5766847 0.8110109 255 0 0
1.3601139 1.577608 0.80856848 255 0 0
1.3586366 1.5785313 0.80612612 255 0 0
1.3571594 1.5794547 0.8036837 255 0 0
1.3556821 1.5803779 0.80124128 255 0 0
1.3542049 1.5813012 0.79879892 255 0 0
1.3527277 1.5822246 0.7963565 255 0 0
1.3512504 1.5831479 0.79391414 255 0 0
1.3497733 1.5840712 0.79147172 255 0 0
1.348296 1.5849946 0.78902936 255 0 0
1.3468188 1.5859178 0.78658694 255 0 0
1.3453416 1.5868411 0.78414452 255 0 0
1.3438643 1.5877645 0.78170216 255 0 0
1.3423871 1.5886878 0.77925974 255 0 0
1.3409098 1.5896112 0.77681732 255 0 0
1.3394326 1.5905344 0.77437496 255 0 0
1.3379554 1.5914577 0.77193254 255 0 0
1.3364782 1.5923811 0.76949018 255 0 0
1.335001 1.5933044 0.76704776 255 0 0
1.3335238 1.5942277 0.7646054 255 0 0
1.3320465 1.5951511 0.76216298 255 0 0
1.3305693 1.5960743 0.75972056 255 0 0
1.329092 1.5969976 0.7572782 255 0 0
1.3276148 1.597921 0.75483578 255 0 0
1.3261375 1.5988443 0.75239336 255 0 0
1.3246603 1.5997677 0.749951 255 0 0
1.3231831 1.600691 0.74750859 255 0 0
1.3217058 1.6016142 0.74506623 255 0 0
1.3202286 1.6025376 0.74262381 255 0 0
1.3187515 1.6034609 0.74018145 255 0 0
1.3172742 1.6043842 0.73773903 255 0 0
1.315797 1.6053076 0.73529661 255 0 0
1.3143197 1.6062309 0.73285425 255 0 0
1.3128425 1.6071541 0.73041183 255 0 0
1.3113652 1.6080775 0.72796941 255 0 0
1.309888 1.6090008 0.72552705 255 0 0
1.3084108 1.6099241 0.72308463 255 0 0
1.3069335 1.6108475 0.72064227 255 0 0
1.3054564 1.6117707 0.71819985 255 0 0
1.3039792 1.6126941 0.71575749 255 0 0
1.3025019 1.6136174 0.71331507 255 0 0
1.3010247 1.6145407 0.71087265 255 0 0
1.2995474 1.6154641 0.70843029 255 0 0
1.2980702 1.6163874 0.70598787 255 0 0
1.296593 1.6173106 0.70354551 255 0 0
1.2951157 1.618234 0.70110309 255 0 0
1.2936385 1.6191573 0.69866067 255 0 0
1.2921612 1.6200806 0.69621831 255 0 0
1.290684 1.621004 0.69377589 255 0 0
1.2892069 1.6219273 0.69133353 255 0 0
1.2877296 1.6228507 0.68889111 255 0 0
1.2862524 1.6237739 0.68644869 255 0 0
1.2847751 1.6246972 0.68400633 255 0 0
1.2832979 1.6256206 0.68156391 255 0 0
1.2818207 1.6265439 0.67912155 255 0 0
1.2803434 1.6274672 0.67667913 255 0 0
1.2788662 1.6283906 0.67423677 255 0 0
1.277389 1.6293138 0.67179435 255 0 0
1.2759118 1.6302371 0.66935194 255 0 0
1.2744346 1.6311605 0.66690958 255 0 0
1.2729573 1.6320838 0.66446716 255 0 0
1.2714801 1.633007 0.6620248 255 0 0
1.2700028 1.6339304 0.65958238 255 0 0
1.2685256 1.6348537 0.65713996 255 0 0
1.2670484 1.6357771 0.6546976 255 0 0
1.2655711 1.6367004 0.65225518 255 0 0
1.2640939 1.6376237 0.64981276 255 0 0
1.2626166 1.6385471 0.6473704 255 0 0
1.2611394 1.6394703 0.64492798 255 0 0
1.2596622 1.6403936 0.64248556 255 0 0
1.4058498 1.5517789 0.88537419 255 0 0
1.4043726 1.5527022 0.88293177 255 0 0
1.4028953 1.5536256 0.88048935 255 0 0
1.4014181 1.5545489 0.87804693 255 0 0
1.3999408 1.5554723 0.87560457 255 0 0
1.3984636 1.5563955 0.87316215 255 0 0
1.3969864 1.5573188 0.87071973 255 0 0
1.3955091 1.5582422 0.86827731 255 0 0
1.3940319 1.5591655 0.86583495 255 0 0
1.3925546 1.5600888 0.86339253 255 0 0
1.3910775 1.5610121 0.86095017 255 0 0
1.3896003 1.5619354 0.85850775 255 0 0
1.388123 1.5628588 0.85606539 255 0 0
1.3866458 1.5637821 0.85362297 255 0 0
1.3851686 1.5647054 0.85118055 255 0 0
1.3836913 1.5656288 0.84873819 255 0 0
1.3822141 1.566552 0.84629577 255 0 0
1.3807368 1.5674753 0.84385341 255 0 0
1.3792596 1.5683987 0.84141099 255 0 0
1.3777823 1.569322 0.83896863 255 0 0
1.3763051 1.5702453 0.83652622 255 0 0
1.374828 1.5711687 0.8340838 255 0 0
1.3733507 1.5720919 0.83164144 255 0 0
1.3718735 1.5730152 0.82919902 255 0 0
1.3703963 1.5739386 0.8267566 255 0 0
1.368919 1.5748619 0.82431424 255 0 0
1.3674418 1.5757853 0.82187188 255 0 0
1.3659645 1.5767086 0.81942946 255 0 0
1.3644873 1.5776318 0.81698704 255 0 0
1.36301 1.5785552 0.81454468 255 0 0
1.3615329 1.5794785 0.81210226 255 0 0
1.3600557 1.5804018 0.80965984 255 0 0
1.3585784 1.5813252 0.80721748 255 0 0
1.3571012 1.5822484 0.80477506 255 0 0
1.355624 1.5831717 0.8023327 255 0 0
1.3541467 1.5840951 0.79989028 255 0 0
1.3526695 1.5850184 0.79744792 255 0 0
1.3511922 1.5859417 0.7950055 255 0 0
1.349715 1.5868651 0.79256308 255 0 0
1.3482378 1.5877883 0.79012072 255 0 0
1.3467605 1.5887117 0.7876783 255 0 0
1.3452834 1.589635 0.78523588 255 0 0
1.3438061 1.5905583 0.78279352 255 0 0
1.3423289 1.5914817 0.78035116 255 0 0
1.3408517 1.592405 0.77790874 255 0 0
1.3393744 1.5933282 0.77546632 255 0 0
1.3378972 1.5942516 0.77302396 255 0 0
1.3364199 1.5951749 0.77058154 255 0 0
1.3349427 1.5960982 0.76813912 255 0 0
1.3334655 1.5970216 0.76569676 255 0 0
1.3319883 1.5979449 0.76325434 255 0 0
1.3305111 1.5988683 0.76081198 255 0 0
1.3290339 1.5997915 0.75836957 255 0 0
1.3275566 1.6007148 0.75592715 255 0 0
1.3260794 1.6016382 0.75348479 255 0 0
1.3246021 1.6025615 0.75104237 255 0 0
1.3231249 1.6034847 0.74860001 255 0 0
1.3216476 1.6044081 0.74615759 255 0 0
1.3201704 1.6053314 0.74371517 255 0 0
1.3186932 1.6062547 0.74127281 255 0 0
1.3172159 1.6071781 0.73883039 255 0 0
1.3157387 1.6081014 0.73638797 255 0 0
1.3142616 1.6090248 0.73394561 255 0 0
1.3127843 1.609948 0.73150319 255 0 0
1.3113071 1.6108713 0.72906083 255 0 0
1.3098298 1.6117947 0.72661841 255 0 0
1.3083526 1.612718 0.72417605 255 0 0
1.3068753 1.6136413 0.72173363 255 0 0
1.3053981 1.6145647 0.71929121 255 0 0
1.3039209 1.6154879 0.71684885 255 0 0
1.3024437 1.6164112 0.71440643 255 0 0
1.3009665 1.6173346 0.71196407 255 0 0
1.2994893 1.6182579 0.70952165 255 0 0
1.298012 1.6191812 0.70707929 255 0 0
1.2965348 1.6201046 0.70463687 255 0 0
1.2950575 1.6210278 0.70219445 255 0 0
1.2935803 1.6219511 0.69975209 255 0 0
1.2921031 1.6228745 0.69730967 255 0 0
1.2906258 1.6237978 0.69486725 255 0 0
1.2891486 1.6247212 0.69242489 255 0 0
1.2876713 1.6256444 0.68998247 255 0 0
1.2861942 1.6265677 0.68754011 255 0 0
1.284717 1.6274911 0.68509769 255 0 0
1.2832397 1.6284144 0.68265533 255 0 0
1.2817625 1.6293377 0.68021291 255 0 0
1.2802852 1.6302611 0.6777705 255 0 0
1.278808 1.6311843 0.67532814 255 0 0
1.2773308 1.6321076 0.67288572 255 0 0
1.2758535 1.633031 0.67044336 255 0 0
1.2743763 1.6339543 0.66800094 255 0 0
1.2728992 1.6348777 0.66555858 255 0 0
1.2714219 1.635801 0.66311616 255 0 0
1.2699447 1.6367242 0.66067374 255 0 0
1.2684674 1.6376476 0.65823138 255 0 0
1.2669902 1.6385709 0.65578896 255 0 0
1.2655129 1.6394942 0.65334654 255 0 0
1.2640357 1.6404176 0.65090412 255 0 0
1.2625585 1.6413409 0.64846176 255 0 0
1.2610812 1.6422641 0.64601934 255 0 0
1.259604 1.6431875 0.64357692 255 0 0
1.4057916 1.5545727 0.88646555 255 0 0
1.4043144 1.5554961 0.88402313 255 0 0
1.4028372 1.5564194 0.88158071 255 0 0
1.4013599 1.5573428 0.87913835 255 0 0
1.3998827 1.558266 0.87669593 255 0 0
1.3984054 1.5591893 0.87425351 255 0 0
1.3969282 1.5601127 0.87181115 255 0 0
1.3954509 1.561036 0.86936873 255 0 0
1.3939737 1.5619594 0.86692631 255 0 0
1.3924965 1.5628827 0.86448395 255 0 0
1.3910192 1.5638059 0.86204153 255 0 0
1.389542 1.5647293 0.85959911 255 0 0
1.3880649 1.5656526 0.85715675 255 0 0
1.3865876 1.5665759 0.85471433 255 0 0
1.3851104 1.5674993 0.85227197 255 0 0
1.3836331 1.5684226 0.84982955 255 0 0
1.3821559 1.5693458 0.84738719 255 0 0
1.3806787 1.5702692 0.84494478 255 0 0
1.3792014 1.5711925 0.84250236 255 0 0
1.3777242 1.5721158 0.84006 255 0 0
1.3762469 1.5730392 0.83761758 255 0 0
1.3747697 1.5739625 0.83517516 255 0 0
1.3732926 1.5748858 0.8327328 255 0 0
1.3718153 1.5758091 0.83029044 255 0 0
1.3703381 1.5767324 0.82784802 255 0 0
1.3688608 1.5776558 0.8254056 255 0 0
1.3673836 1.5785791 0.82296324 255 0 0
1.3659064 1.5795023 0.82052082 255 0 0
1.3644291 1.5804257 0.8180784 255 0 0
1.3629519 1.581349 0.81563604 255 0 0
1.3614746 1.5822723 0.81319362 255 0 0
1.3599975 1.5831957 0.81075126 255 0 0
1.3585203 1.584119 0.80830884 255 0 0
1.357043 1.5850422 0.80586648 255 0 0
1.3555658 1.5859656 0.80342406 255 0 0
1.3540885 1.5868889 0.80098164 255 0 0
1.3526113 1.5878123 0.79853928 255 0 0
1.3511341 1.5887356 0.79609686 255 0 0
1.3496568 1.5896589 0.7936545 255 0 0
1.3481796 1.5905823 0.79121208 255 0 0
1.3467023 1.5915055 0.78876972 255 0 0
1.3452251 1.5924288 0.7863273 255 0 0
1.343748 1.5933522 0.78388488 255 0 0
1.3422707 1.5942755 0.78144252 255 0 0
1.3407935 1.5951988 0.7790001 255 0 0
1.3393162 1.5961221 0.77655768 255 0 0
1.337839 1.5970454 0.77411532 255 0 0
1.3363618 1.5979688 0.7716729 255 0 0
1.3348845 1.5988921 0.76923048 255 0 0
1.3334073 1.5998154 0.76678813 255 0 0
1.33193 1.6007388 0.76434577 255 0 0
1.3304529 1.601662 0.76190335 255 0 0
1.3289757 1.6025853 0.75946093 255 0 0
1.3274984 1.6035087 0.75701857 255 0 0
1.3260212 1.604432 0.75457615 255 0 0
1.324544 1.6053553 0.75213373 255 0 0
1.3230667 1.6062787 0.74969137 255 0 0
1.3215895 1.6072019 0.74724895 255 0 0
1.3201122 1.6081252 0.74480659 255 0 0
1.318635 1.6090486 0.74236417 255 0 0
1.3171577 1.6099719 0.73992175 255 0 0
1.3156805 1.6108953 0.73747939 255 0 0
1.3142033 1.6118186 0.73503697 255 0 0
1.3127261 1.6127418 0.73259461 255 0 0
1.3112489 1.6136652 0.73015219 255 0 0
1.3097717 1.6145885 0.72770977 255 0 0
1.3082944 1.6155118 0.72526741 255 0 0
1.3068172 1.6164352 0.72282499 255 0 0
1.3053399 1.6173584 0.72038263 255 0 0
1.3038627 1.6182817 0.71794021 255 0 0
1.3023854 1.6192051 0.71549785 255 0 0
1.3009082 1.6201284 0.71305543 255 0 0
1.2994311 1.6210518 0.71061301 255 0 0
1.2979538 1.6219751 0.70817065 255 0 0
1.2964766 1.6228983 0.70572823 255 0 0
1.2949994 1.6238217 0.70328581 255 0 0
1.2935221 1.624745 0.70084345 255 0 0
1.2920449 1.6256683 0.69840103 255 0 0
1.2905676 1.6265917 0.69595867 255 0 0
1.2890904 1.627515 0.69351625 255 0 0
1.2876132 1.6284382 0.69107389 255 0 0
1.2861359 1.6293616 0.68863147 255 0 0
1.2846587 1.6302849 0.68618906 255 0 0
1.2831815 1.6312082 0.6837467 255 0 0
1.2817043 1.6321316 0.68130428 255 0 0
1.2802271 1.6330549 0.67886192 255 0 0
1.2787498 1.6339781 0.6764195 255 0 0
1.2772726 1.6349015 0.67397714 255 0 0
1.2757953 1.6358248 0.67153472 255 0 0
1.2743181 1.6367482 0.6690923 255 0 0
1.2728409 1.6376715 0.66664994 255 0 0
1.2713637 1.6385947 0.66420752 255 0 0
1.2698865 1.6395181 0.6617651 255 0 0
1.2684093 1.6404414 0.65932274 255 0 0
1.266932 1.6413647 0.65688032 255 0 0
1.2654548 1.6422881 0.6544379 255 0 0
1.2639775 1.6432114 0.65199554 255 0 0
1.2625003 1.6441348 0.64955312 255 0 0
1.261023 1.645058 0.6471107 255 0 0
1.2595458 1.6459813 0.64466834 255 0 0
1.4057333 1.5573666 0.88755691 255 0 0
1.4042561 1.5582899 0.88511449 255 0 0
1.402779 1.5592133 0.88267207 255 0 0
1.4013017 1.5601366 0.88022971 255 0 0
1.3998245 1.5610598 0.87778729 255 0 0
1.3983473 1.5619832 0.87534487 255 0 0
1.39687 1.5629065 0.87290251 255 0 0
1.3953928 1.5638299 0.87046009 255 0 0
1.3939155 1.5647532 0.86801767 255 0 0
1.3924383 1.5656765 0.86557531 255 0 0
1.3909611 1.5665998 0.86313289 255 0 0
1.3894838 1.5675231 0.86069053 255 0 0
1.3880066 1.5684464 0.85824811 255 0 0
1.3865294 1.5693698 0.85580575 255 0 0
1.3850522 1.5702931 0.85336334 255 0 0
1.383575 1.5712163 0.85092092 255 0 0
1.3820977 1.5721397 0.84847856 255 0 0
1.3806205 1.573063 0.84603614 255 0 0
1.3791432 1.5739864 0.84359372 255 0 0
1.377666 1.5749097 0.84115136 255 0 0
1.3761888 1.575833 0.838709 255 0 0
1.3747115 1.5767564 0.83626658 255 0 0
1.3732343 1.5776796 0.83382416 255 0 0
1.371757 1.5786029 0.8313818 255 0 0
1.3702799 1.5795263 0.82893938 255 0 0
1.3688027 1.5804496 0.82649696 255 0 0
1.3673254 1.5813729 0.8240546 255 0 0
1.3658482 1.5822963 0.82161218 255 0 0
1.3643709 1.5832195 0.81916982 255 0 0
1.3628937 1.5841428 0.8167274 255 0 0
1.3614165 1.5850662 0.81428504 255 0 0
1.3599392 1.5859895 0.81184262 255 0 0
1.3584621 1.5869129 0.8094002 255 0 0
1.3569849 1.5878361 0.80695784 255 0 0
1.3555076 1.5887594 0.80451542 255 0 0
1.3540304 1.5896828 0.802073 255 0 0
1.3525531 1.5906061 0.79963064 255 0 0
1.3510759 1.5915294 0.79718828 255 0 0
1.3495986 1.5924528 0.79474586 255 0 0
1.3481214 1.593376 0.79230344 255 0 0
1.3466442 1.5942993 0.78986108 255 0 0
1.3451669 1.5952227 0.78741866 255 0 0
1.3436897 1.596146 0.78497624 255 0 0
1.3422126 1.5970693 0.78253388 255 0 0
1.3407353 1.5979927 0.78009146 255 0 0
1.3392581 1.5989159 0.7776491 255 0 0
1.3377808 1.5998393 0.77520669 255 0 0
1.3363036 1.6007626 0.77276433 255 0 0
1.3348264 1.6016859 0.77032191 255 0 0
1.3333491 1.6026093 0.76787949 255 0 0
1.3318719 1.6035326 0.76543713 255 0 0
1.3303946 1.6044558 0.76299471 255 0 0
1.3289174 1.6053792 0.76055229 255 0 0
1.3274403 1.6063025 0.75810993 255 0 0
1.325963 1.6072258 0.75566751 255 0 0
1.3244858 1.6081492 0.75322515 255 0 0
1.3230085 1.6090724 0.75078273 255 0 0
1.3215313 1.6099958 0.74834037 255 0 0
1.3200541 1.6109191 0.74589795 255 0 0
1.3185768 1.6118424 0.74345553 255 0 0
1.3170996 1.6127658 0.74101317 255 0 0
1.3156223 1.6136891 0.73857075 255 0 0
1.3141451 1.6146123 0.73612833 255 0 0
1.3126678 1.6155357 0.73368597 255 0 0
1.3111907 1.616459 0.73124355 255 0 0
1.3097135 1.6173823 0.72880119 255 0 0
1.3082362 1.6183057 0.72635877 255 0 0
1.306759 1.619229 0.72391641 255 0 0
1.3052818 1.6201522 0.72147399 255 0 0
1.3038045 1.6210756 0.71903157 255 0 0
1.3023273 1.6219989 0.71658921 255 0 0
1.30085 1.6229223 0.71414679 255 0 0
1.2993728 1.6238456 0.71170437 255 0 0
1.2978957 1.6247689 0.70926201 255 0 0
1.2964184 1.6256922 0.70681959 255 0 0
1.2949412 1.6266155 0.70437723 255 0 0
1.2934639 1.6275388 0.70193481 255 0 0
1.2919867 1.6284622 0.69949245 255 0 0
1.2905095 1.6293855 0.69705003 255 0 0
1.2890322 1.6303087 0.69460762 255 0 0
1.287555 1.6312321 0.69216526 255 0 0
1.2860777 1.6321554 0.68972284 255 0 0
1.2846005 1.6330788 0.68728048 255 0 0
1.2831233 1.6340021 0.68483806 255 0 0
1.2816461 1.6349254 0.6823957 255 0 0
1.2801689 1.6358488 0.67995328 255 0 0
1.2786916 1.636772 0.67751086 255 0 0
1.2772144 1.6376953 0.6750685 255 0 0
1.2757372 1.6386187 0.67262608 255 0 0
1.2742599 1.639542 0.67018372 255 0 0
1.2727827 1.6404653 0.6677413 255 0 0
1.2713054 1.6413887 0.66529888 255 0 0
1.2698282 1.6423119 0.66285652 255 0 0
1.2683511 1.6432352 0.6604141 255 0 0
1.2668738 1.6441586 0.65797168 255 0 0
1.2653966 1.6450819 0.65552932 255 0 0
1.2639194 1.6460053 0.6530869 255 0 0
1.2624421 1.6469285 0.65064448 255 0 0
1.2609649 1.6478518 0.64820212 255 0 0
1.2594876 1.6487752 0.6457597 255 0 0
1.4056752 1.5601604 0.88864827 255 0 0
1.4041979 1.5610838 0.88620591 255 0 0
1.4027207 1.5620071 0.88376349 255 0 0
1.4012434 1.5629303 0.88132107 255 0 0
1.3997663 1.5638537 0.87887871 255 0 0
1.3982891 1.564777 0.87643629 255 0 0
1.3968118 1.5657004 0.87399387 255 0 0
1.3953346 1.5666237 0.87155145 255 0 0
1.3938574 1.567547 0.86910909 255 0 0
1.3923801 1.5684704 0.86666667 255 0 0
1.3909029 1.5693936 0.86422431 255 0 0
1.3894256 1.5703169 0.8617819 255 0 0
1.3879484 1.5712403 0.85933948 255 0 0
1.3864712 1.5721636 0.85689712 255 0 0
1.3849939 1.573087 0.8544547 255 0 0
1.3835168 1.5740103 0.85201228 255 0 0
1.3820395 1.5749335 0.84956992 255 0 0
1.3805623 1.5758569 0.84712756 255 0 0
1.3790851 1.5767802 0.84468514 255 0 0
1.3776078 1.5777035 0.84224272 255 0 0
1.3761306 1.5786269 0.83980036 255 0 0
1.3746533 1.5795501 0.83735794 255 0 0
1.3731761 1.5804734 0.83491552 255 0 0
1.3716989 1.5813968 0.83247316 255 0 0
1.3702216 1.5823201 0.83003074 255 0 0
1.3687445 1.5832434 0.82758838 255 0 0
1.3672673 1.5841668 0.82514596 255 0 0
1.36579 1.58509 0.8227036 255 0 0
1.3643128 1.5860133 0.82026118 255 0 0
1.3628355 1.5869367 0.81781876 255 0 0
1.3613583 1.58786 0.8153764 255 0 0
1.359881 1.5887834 0.81293398 255 0 0
1.3584038 1.5897067 0.81049156 255 0 0
1.3569267 1.5906299 0.8080492 255 0 0
1.3554494 1.5915533 0.80560684 255 0 0
1.3539722 1.5924766 0.80316442 255 0 0
1.352495 1.5933999 0.800722 255 0 0
1.3510177 1.5943233 0.79827964 255 0 0
1.3495405 1.5952466 0.79583722 255 0 0
1.3480632 1.5961698 0.7933948 255 0 0
1.346586 1.5970932 0.79095244 255 0 0
1.3451087 1.5980165 0.78851002 255 0 0
1.3436315 1.5989399 0.78606766 255 0 0
1.3421543 1.5998632 0.78362525 255 0 0
1.340677 1.6007864 0.78118289 255 0 0
1.3391999 1.6017098 0.77874047 255 0 0
1.3377227 1.6026331 0.77629805 255 0 0
1.3362454 1.6035564 0.77385569 255 0 0
1.3347682 1.6044798 0.77141327 255 0 0
1.3332909 1.6054031 0.76897085 255 0 0
1.3318137 1.6063263 0.76652849 255 0 0
1.3303365 1.6072497 0.76408607 255 0 0
1.3288592 1.608173 0.76164371 255 0 0
1.327382 1.6090963 0.75920129 255 0 0
1.3259048 1.6100197 0.75675887 255 0 0
1.3244276 1.610943 0.75431651 255 0 0
1.3229504 1.6118664 0.75187409 255 0 0
1.3214731 1.6127896 0.74943173 255 0 0
1.3199959 1.6137129 0.74698931 255 0 0
1.3185186 1.6146363 0.74454689 255 0 0
1.3170414 1.6155596 0.74210453 255 0 0
1.3155642 1.6164829 0.73966211 255 0 0
1.3140869 1.6174062 0.73721975 255 0 0
1.3126097 1.6183295 0.73477733 255 0 0
1.3111324 1.6192528 0.73233491 255 0 0
1.3096553 1.6201762 0.72989255 255 0 0
1.3081781 1.6210995 0.72745013 255 0 0
1.3067008 1.6220229 0.72500777 255 0 0
1.3052236 1.6229461 0.72256535 255 0 0
1.3037463 1.6238694 0.72012293 255 0 0
1.3022691 1.6247928 0.71768057 255 0 0
1.3007919 1.6257161 0.71523815 255 0 0
1.2993146 1.6266394 0.71279579 255 0 0
1.2978374 1.6275628 0.71035337 255 0 0
1.2963603 1.628486 0.70791101 255 0 0
1.294883 1.6294093 0.7054686 255 0 0
1.2934058 1.6303327 0.70302618 255 0 0
1.2919285 1.631256 0.70058382 255 0 0
1.2904513 1.6321793 0.6981414 255 0 0
1.288974 1.6331027 0.69569904 255 0 0
1.2874968 1.6340259 0.69325662 255 0 0
1.2860196 1.6349493 0.69081426 255 0 0
1.2845423 1.6358726 0.68837184 255 0 0
1.2830651 1.6367959 0.68592942 255 0 0
1.2815878 1.6377193 0.68348706 255 0 0
1.2801107 1.6386425 0.68104464 255 0 0
1.2786335 1.6395658 0.67860228 255 0 0
1.2771562 1.6404892 0.67615986 255 0 0
1.275679 1.6414125 0.67371744 255 0 0
1.2742018 1.6423358 0.67127508 255 0 0
1.2727245 1.6432592 0.66883266 255 0 0
1.2712473 1.6441824 0.6663903 255 0 0
1.26977 1.6451058 0.66394788 255 0 0
1.2682928 1.6460291 0.66150546 255 0 0
1.2668155 1.6469524 0.6590631 255 0 0
1.2653384 1.6478758 0.65662068 255 0 0
1.2638612 1.6487991 0.65417826 255 0 0
1.2623839 1.6497223 0.6517359 255 0 0
1.2609067 1.6506457 0.64929348 255 0 0
1.2594295 1.651569 0.64685106 255 0 0
1.405617 1.5629543 0.88973963 255 0 0
1.4041398 1.5638776 0.88729727 255 0 0
1.4026625 1.564801 0.88485485 255 0 0
1.4011853 1.5657243 0.88241243 255 0 0
1.399708 1.5666475 0.87997007 255 0 0
1.3982308 1.5675709 0.87752765 255 0 0
1.3967537 1.5684942 0.87508523 255 0 0
1.3952764 1.5694175 0.87264287 255 0 0
1.3937992 1.5703409 0.87020046 255 0 0
1.3923219 1.5712641 0.86775804 255 0 0
1.3908447 1.5721874 0.86531568 255 0 0
1.3893675 1.5731108 0.86287326 255 0 0
1.3878902 1.5740341 0.86043084 255 0 0
1.386413 1.5749575 0.85798848 255 0 0
1.3849357 1.5758808 0.85554612 255 0 0
1.3834585 1.576804 0.8531037 255 0 0
1.3819814 1.5777274 0.85066128 255 0 0
1.3805041 1.5786507 0.84821892 255 0 0
1.3790269 1.579574 0.8457765 255 0 0
1.3775496 1.5804974 0.84333408 255 0 0
1.3760724 1.5814207 0.84089172 255 0 0
1.3745952 1.5823439 0.8384493 255 0 0
1.3731179 1.5832673 0.83600694 255 0 0
1.3716407 1.5841906 0.83356452 255 0 0
1.3701634 1.5851139 0.83112216 255 0 0
1.3686862 1.5860373 0.82867974 255 0 0
1.367209 1.5869606 0.82623732 255 0 0
1.3657318 1.5878839 0.82379496 255 0 0
1.3642546 1.5888072 0.82135254 255 0 0
1.3627774 1.5897305 0.81891012 255 0 0
1.3613001 1.5906539 0.81646776 255 0 0
1.3598229 1.5915772 0.8140254 255 0 0
1.3583456 1.5925004 0.81158298 255 0 0
1.3568684 1.5934238 0.80914056 255 0 0
1.3553911 1.5943471 0.8066982 255 0 0
1.3539139 1.5952704 0.80425578 255 0 0
1.3524368 1.5961938 0.80181336 255 0 0
1.3509595 1.5971171 0.799371 255 0 0
1.3494823 1.5980403 0.79692864 255 0 0
1.3480051 1.5989637 0.79448622 255 0 0
1.3465278 1.599887 0.79204381 255 0 0
1.3450506 1.6008104 0.78960145 255 0 0
1.3435733 1.6017337 0.78715903 255 0 0
1.3420961 1.602657 0.78471661 255 0 0
1.3406188 1.6035804 0.78227425 255 0 0
1.3391416 1.6045036 0.77983183 255 0 0
1.3376644 1.6054269 0.77738941 255 0 0
1.3361872 1.6063503 0.77494705 255 0 0
1.33471 1.6072736 0.77250463 255 0 0
1.3332328 1.6081969 0.77006227 255 0 0
1.3317555 1.6091202 0.76761985 255 0 0
1.3302783 1.6100435 0.76517749 255 0 0
1.328801 1.6109669 0.76273507 255 0 0
1.3273238 1.6118902 0.76029265 255 0 0
1.3258466 1.6128135 0.75785029 255 0 0
1.3243693 1.6137369 0.75540787 255 0 0
1.3228921 1.6146601 0.75296545 255 0 0
1.3214149 1.6155834 0.75052309 255 0 0
1.3199377 1.6165068 0.74808067 255 0 0
1.3184605 1.6174301 0.74563831 255 0 0
1.3169832 1.6183534 0.74319589 255 0 0
1.315506 1.6192768 0.74075347 255 0 0
1.3140287 1.6202 0.73831111 255 0 0
1.3125515 1.6211233 0.73586869 255 0 0
1.3110743 1.6220467 0.73342633 255 0 0
1.309597 1.62297 0.73098391 255 0 0
1.3081198 1.6238934 0.72854149 255 0 0
1.3066425 1.6248167 0.72609913 255 0 0
1.3051654 1.6257399 0.72365671 255 0 0
1.3036882 1.6266633 0.72121435 255 0 0
1.3022109 1.6275866 0.71877193 255 0 0
1.3007337 1.6285099 0.71632957 255 0 0
1.2992564 1.6294333 0.71388716 255 0 0
1.2977792 1.6303566 0.71144474 255 0 0
1.296302 1.6312798 0.70900238 255 0 0
1.2948247 1.6322032 0.70655996 255 0 0
1.2933476 1.6331265 0.7041176 255 0 0
1.2918704 1.6340499 0.70167518 255 0 0
1.2903931 1.6349732 0.69923282 255 0 0
1.2889159 1.6358964 0.6967904 255 0 0
1.2874386 1.6368198 0.69434798 255 0 0
1.2859614 1.6377431 0.69190562 255 0 0
1.2844841 1.6386664 0.6894632 255 0 0
1.2830069 1.6395898 0.68702084 255 0 0
1.2815297 1.6405131 0.68457842 255 0 0
1.2800524 1.6414363 0.682136 255 0 0
1.2785752 1.6423597 0.67969364 255 0 0
1.2770981 1.643283 0.67725122 255 0 0
1.2756208 1.6442063 0.67480886 255 0 0
1.2741436 1.6451297 0.67236644 255 0 0
1.2726663 1.646053 0.66992402 255 0 0
1.2711891 1.6469764 0.66748166 255 0 0
1.2697119 1.6478996 0.66503924 255 0 0
1.2682346 1.6488229 0.66259682 255 0 0
1.2667574 1.6497463 0.66015446 255 0 0
1.2652801 1.6506696 0.65771204 255 0 0
1.2638029 1.6515929 0.65526962 255 0 0
1.2623256 1.6525162 0.65282726 255 0 0
1.2608485 1.6534395 0.65038484 255 0 0
1.2593713 1.6543629 0.64794242 255 0 0
1.4055588 1.5657481 0.89083105 255 0 0
1.4040816 1.5666715 0.88838863 255 0 0
1.4026043 1.5675948 0.88594621 255 0 0
1.4011271 1.568518 0.88350379 255 0 0
1.3996499 1.5694414 0.88106143 255 0 0
1.3981726 1.5703647 0.87861902 255 0 0
1.3966954 1.571288 0.8761766 255 0 0
1.3952181 1.5722114 0.87373424 255 0 0
1.3937409 1.5731347 0.87129182 255 0 0
1.3922638 1.5740581 0.8688494 255 0 0
1.3907865 1.5749813 0.86640704 255 0 0
1.3893093 1.5759046 0.86396468 255 0 0
1.387832 1.576828 0.86152226 255 0 0
1.3863548 1.5777513 0.85907984 255 0 0
1.3848776 1.5786746 0.85663748 255 0 0
1.3834003 1.5795979 0.85419506 255 0 0
1.3819231 1.5805212 0.85175264 255 0 0
1.380446 1.5814445 0.84931028 255 0 0
1.3789687 1.5823679 0.84686786 255 0 0
1.3774915 1.5832912 0.8444255 255 0 0
1.3760142 1.5842144 0.84198308 255 0 0
1.374537 1.5851378 0.83954072 255 0 0
1.3730597 1.5860611 0.8370983 255 0 0
1.3715825 1.5869845 0.83465588 255 0 0
1.3701053 1.5879078 0.83221352 255 0 0
1.368628 1.5888311 0.8297711 255 0 0
1.3671508 1.5897545 0.82732874 255 0 0
1.3656735 1.5906777 0.82488632 255 0 0
1.3641964 1.591601 0.82244396 255 0 0
1.3627192 1.5925244 0.82000154 255 0 0
1.3612419 1.5934477 0.81755912 255 0 0
1.3597647 1.594371 0.81511676 255 0 0
1.3582875 1.5952944 0.81267434 255 0 0
1.3568102 1.5962176 0.81023192 255 0 0
1.355333 1.597141 0.80778956 255 0 0
1.3538557 1.5980643 0.80534714 255 0 0
1.3523785 1.5989876 0.80290478 255 0 0
1.3509014 1.599911 0.80046237 255 0 0
1.3494241 1.6008343 0.79802001 255 0 0
1.3479469 1.6017575 0.79557759 255 0 0
1.3464696 1.6026809 0.79313517 255 0 0
1.3449924 1.6036042 0.79069281 255 0 0
1.3435152 1.6045275 0.78825039 255 0 0
1.3420379 1.6054509 0.78580803 255 0 0
1.3405607 1.6063741 0.78336561 255 0 0
1.3390834 1.6072974 0.78092325 255 0 0
1.3376062 1.6082208 0.77848083 255 0 0
1.336129 1.6091441 0.77603841 255 0 0
1.3346517 1.6100675 0.77359605 255 0 0
1.3331746 1.6109908 0.77115363 255 0 0
1.3316973 1.611914 0.76871121 255 0 0
1.3302201 1.6128374 0.76626885 255 0 0
1.3287429 1.6137607 0.76382643 255 0 0
1.3272656 1.614684 0.76138401 255 0 0
1.3257884 1.6156074 0.75894165 255 0 0
1.3243111 1.6165307 0.75649923 255 0 0
1.3228339 1.6174539 0.75405687 255 0 0
1.3213567 1.6183773 0.75161445 255 0 0
1.3198795 1.6193006 0.74917209 255 0 0
1.3184023 1.620224 0.74672967 255 0 0
1.316925 1.6211473 0.74428725 255 0 0
1.3154478 1.6220706 0.74184489 255 0 0
1.3139706 1.6229939 0.73940247 255 0 0
1.3124933 1.6239172 0.73696005 255 0 0
1.3110161 1.6248405 0.73451769 255 0 0
1.3095388 1.6257639 0.73207527 255 0 0
1.3080616 1.6266872 0.72963291 255 0 0
1.3065844 1.6276104 0.72719049 255 0 0
1.3051071 1.6285338 0.72474813 255 0 0
1.30363 1.6294571 0.72230572 255 0 0
1.3021528 1.6303804 0.7198633 255 0 0
1.3006755 1.6313038 0.71742094 255 0 0
1.2991983 1.6322271 0.71497852 255 0 0
1.297721 1.6331503 0.71253616 255 0 0
1.2962438 1.6340737 0.71009374 255 0 0
1.2947665 1.634997 0.70765138 255 0 0
1.2932893 1.6359204 0.70520896 255 0 0
1.2918121 1.6368437 0.70276654 255 0 0
1.2903349 1.637767 0.70032418 255 0 0
1.2888577 1.6386904 0.69788176 255 0 0
1.2873805 1.6396136 0.6954394 255 0 0
1.2859032 1.6405369 0.69299698 255 0 0
1.284426 1.6414603 0.69055456 255 0 0
1.2829487 1.6423836 0.6881122 255 0 0
1.2814715 1.6433069 0.68566978 255 0 0
1.2799942 1.6442302 0.68322742 255 0 0
1.278517 1.6451535 0.680785 255 0 0
1.2770398 1.6460769 0.67834258 255 0 0
1.2755625 1.6470002 0.67590022 255 0 0
1.2740854 1.6479235 0.6734578 255 0 0
1.2726082 1.6488469 0.67101544 255 0 0
1.2711309 1.6497701 0.66857302 255 0 0
1.2696537 1.6506934 0.6661306 255 0 0
1.2681764 1.6516168 0.66368824 255 0 0
1.2666992 1.6525401 0.66124582 255 0 0
1.265222 1.6534634 0.6588034 255 0 0
1.2637447 1.6543868 0.65636104 255 0 0
1.2622675 1.65531 0.65391862 255 0 0
1.2607902 1.6562334 0.6514762 255 0 0
1.259313 1.6571567 0.64903384 255 0 0
1.4055007 1.568542 0.89192241 255 0 0
1.4040234 1.5694653 0.88947999 255 0 0
1.4025462 1.5703886 0.88703763 255 0 0
1.4010689 1.571312 0.88459522 255 0 0
1.3995917 1.5722352 0.8821528 255 0 0
1.3981144 1.5731585 0.87971044 255 0 0
1.3966372 1.5740819 0.87726802 255 0 0
1.39516 1.5750052 0.8748256 255 0 0
1.3936827 1.5759286 0.87238324 255 0 0
1.3922055 1.5768518 0.86994082 255 0 0
1.3907284 1.5777751 0.8674984 255 0 0
1.3892511 1.5786985 0.86505604 255 0 0
1.3877739 1.5796218 0.86261362 255 0 0
1.3862966 1.5805451 0.8601712 255 0 0
1.3848194 1.5814685 0.85772884 255 0 0
1.3833421 1.5823917 0.85528642 255 0 0
1.3818649 1.583315 0.85284406 255 0 0
1.3803877 1.5842384 0.85040164 255 0 0
1.3789104 1.5851617 0.84795928 255 0 0
1.3774333 1.5860851 0.84551686 255 0 0
1.3759561 1.5870084 0.84307444 255 0 0
1.3744788 1.5879316 0.84063208 255 0 0
1.3730016 1.588855 0.83818966 255 0 0
1.3715243 1.5897783 0.8357473 255 0 0
1.3700471 1.5907016 0.83330488 255 0 0
1.3685699 1.591625 0.83086252 255 0 0
1.3670926 1.5925483 0.8284201 255 0 0
1.3656154 1.5934715 0.82597768 255 0 0
1.3641381 1.5943949 0.82353532 255 0 0
1.3626609 1.5953182 0.8210929 255 0 0
1.3611838 1.5962415 0.81865048 255 0 0
1.3597065 1.5971649 0.81620812 255 0 0
1.3582293 1.5980881 0.8137657 255 0 0
1.356752 1.5990115 0.81132334 255 0 0
1.3552748 1.5999348 0.80888093 255 0 0
1.3537976 1.6008581 0.80643857 255 0 0
1.3523203 1.6017815 0.80399615 255 0 0
1.3508431 1.6027048 0.80155373 255 0 0
1.3493659 1.603628 0.79911137 255 0 0
1.3478887 1.6045514 0.79666895 255 0 0
1.3464115 1.6054747 0.79422659 255 0 0
1.3449342 1.606398 0.79178417 255 0 0
1.343457 1.6073214 0.78934181 255 0 0
1.3419797 1.6082447 0.78689939 255 0 0
1.3405025 1.6091681 0.78445697 255 0 0
1.3390253 1.6100913 0.78201461 255 0 0
1.337548 1.6110146 0.77957219 255 0 0
1.3360708 1.611938 0.77712977 255 0 0
1.3345935 1.6128613 0.77468741 255 0 0
1.3331163 1.6137846 0.77224499 255 0 0
1.3316392 1.6147079 0.76980263 255 0 0
1.3301619 1.6156312 0.76736021 255 0 0
1.3286847 1.6165545 0.76491779 255 0 0
1.3272074 1.6174779 0.76247543 255 0 0
1.3257302 1.6184012 0.76003301 255 0 0
1.324253 1.6193244 0.75759065 255 0 0
1.3227757 1.6202478 0.75514823 255 0 0
1.3212985 1.6211711 0.75270581 255 0 0
1.3198212 1.6220945 0.75026345 255 0 0
1.3183441 1.6230178 0.74782103 255 0 0
1.3168669 1.6239411 0.74537861 255 0 0
1.3153896 1.6248645 0.74293625 255 0 0
1.3139124 1.6257877 0.74049383 255 0 0
1.3124352 1.626711 0.73805147 255 0 0
1.3109579 1.6276344 0.73560905 255 0 0
1.3094807 1.6285577 0.73316669 255 0 0
1.3080034 1.629481 0.73072428 255 0 0
1.3065262 1.6304044 0.72828186 255 0 0
1.3050489 1.6313276 0.7258395 255 0 0
1.3035717 1.632251 0.72339708 255 0 0
1.3020946 1.6331743 0.72095472 255 0 0
1.3006173 1.6340976 0.7185123 255 0 0
1.2991401 1.635021 0.71606994 255 0 0
1.2976629 1.6359442 0.71362752 255 0 0
