ply
format ascii 1.0
comment PCL generated
element vertex 1223
property float x
property float y
property float z
property uchar red
property uchar green
property uchar blue
element camera 0
property float view_px
property float view_py
property float view_pz
property float x_axisx
property float x_axisy
property float x_axisz
property float y_axisx
property float y_axisy
property float y_axisz
property float z_axisx
property float z_axisy
property float z_axisz
property float focal
property float scalex
property float scaley
property float centerx
property float centery
property int viewportx
property int viewporty
property float k1
property float k2
end_header
1.2403024 1.4955142 0.86621189 0 0 255
1.2377936 1.4966757 0.86504745 0 0 255
1.2352846 1.4978374 0.86388308 0 0 255
1.2327757 1.4989991 0.8627187 0 0 255
1.2302668 1.5001607 0.86155427 0 0 255
1.2277578 1.5013224 0.86038983 0 0 255
1.2252489 1.5024841 0.85922545 0 0 255
1.2227399 1.5036457 0.85806108 0 0 255
1.2202311 1.5048074 0.85689664 0 0 255
1.2177221 1.505969 0.8557322 0 0 255
1.2152132 1.5071306 0.85456783 0 0 255
1.2127042 1.5082923 0.85340345 0 0 255
1.2101953 1.509454 0.85223901 0 0 255
1.2076863 1.5106156 0.85107458 0 0 255
1.2051774 1.5117773 0.8499102 0 0 255
1.2026684 1.512939 0.84874576 0 0 255
1.4526973 1.3997552 0.96229506 0 0 255
1.4501883 1.4009169 0.96113062 0 0 255
1.4476794 1.4020786 0.95996618 0 0 255
1.4451704 1.4032402 0.95880181 0 0 255
1.4426615 1.4044019 0.95763743 0 0 255
1.4401525 1.4055636 0.95647299 0 0 255
1.4376436 1.4067252 0.95530856 0 0 255
1.4351346 1.4078869 0.95414412 0 0 255
1.4326258 1.4090486 0.95297974 0 0 255
1.4301168 1.4102101 0.95181537 0 0 255
1.4276079 1.4113718 0.95065093 0 0 255
1.425099 1.4125335 0.94948649 0 0 255
1.42259 1.4136951 0.94832212 0 0 255
1.4200811 1.4148568 0.94715774 0 0 255
1.4175721 1.4160185 0.9459933 0 0 255
1.4150633 1.4171801 0.94482887 0 0 255
1.4125543 1.4183418 0.94366449 0 0 255
1.4100454 1.4195035 0.94250011 0 0 255
1.4075364 1.420665 0.94133568 0 0 255
1.4050275 1.4218267 0.94017124 0 0 255
1.4025185 1.4229884 0.93900687 0 0 255
1.4000096 1.4241501 0.93784249 0 0 255
1.3975008 1.4253117 0.93667805 0 0 255
1.3949918 1.4264734 0.93551362 0 0 255
1.3924829 1.4276351 0.93434924 0 0 255
1.3899739 1.4287966 0.93318486 0 0 255
1.387465 1.4299583 0.93202043 0 0 255
1.384956 1.43112 0.93085605 0 0 255
1.3824471 1.4322816 0.92969167 0 0 255
1.3799381 1.4334433 0.92852724 0 0 255
1.3774292 1.434605 0.9273628 0 0 255
1.3749204 1.4357666 0.92619842 0 0 255
1.3724114 1.4369283 0.92503405 0 0 255
1.3699025 1.43809 0.92386961 0 0 255
1.3673935 1.4392515 0.92270517 0 0 255
1.3648846 1.4404132 0.9215408 0 0 255
1.3623756 1.4415749 0.92037642 0 0 255
1.3598667 1.4427366 0.91921198 0 0 255
1.3573577 1.4438982 0.91804755 0 0 255
1.3548489 1.4450599 0.91688317 0 0 255
1.3523399 1.4462216 0.91571873 0 0 255
1.349831 1.4473832 0.91455436 0 0 255
1.347322 1.4485449 0.91338992 0 0 255
1.3448131 1.4497066 0.91222554 0 0 255
1.3423042 1.4508681 0.91106111 0 0 255
1.3397952 1.4520298 0.90989673 0 0 255
1.3372864 1.4531915 0.9087323 0 0 255
1.3347774 1.4543531 0.90756792 0 0 255
1.3322685 1.4555148 0.90640348 0 0 255
1.3297595 1.4566765 0.90523911 0 0 255
1.3272506 1.4578381 0.90407467 0 0 255
1.3247416 1.4589998 0.90291029 0 0 255
1.3222327 1.4601614 0.90174586 0 0 255
1.3197237 1.461323 0.90058148 0 0 255
1.3172148 1.4624847 0.89941704 0 0 255
1.3147058 1.4636464 0.89825267 0 0 255
1.312197 1.464808 0.89708823 0 0 255
1.309688 1.4659697 0.89592385 0 0 255
1.3071791 1.4671314 0.89475942 0 0 255
1.3046701 1.468293 0.89359498 0 0 255
1.3021612 1.4694546 0.8924306 0 0 255
1.2996523 1.4706163 0.89126623 0 0 255
1.2971433 1.4717779 0.89010179 0 0 255
1.2946345 1.4729396 0.88893735 0 0 255
1.2921255 1.4741013 0.88777298 0 0 255
1.2896166 1.475263 0.8866086 0 0 255
1.2871076 1.4764246 0.88544416 0 0 255
1.2845987 1.4775863 0.88427973 0 0 255
1.2820897 1.478748 0.88311535 0 0 255
1.2795808 1.4799095 0.88195097 0 0 255
1.277072 1.4810712 0.88078654 0 0 255
1.274563 1.4822329 0.8796221 0 0 255
1.2720541 1.4833945 0.87845773 0 0 255
1.2695451 1.4845562 0.87729335 0 0 255
1.2670362 1.4857179 0.87612891 0 0 255
1.2645272 1.4868795 0.87496454 0 0 255
1.2620183 1.4880412 0.8738001 0 0 255
1.2595093 1.4892029 0.87263572 0 0 255
1.2570004 1.4903644 0.87147129 0 0 255
1.2544914 1.4915261 0.87030691 0 0 255
1.2519826 1.4926878 0.86914247 0 0 255
1.2494736 1.4938494 0.8679781 0 0 255
1.2469647 1.4950111 0.86681366 0 0 255
1.2444558 1.4961728 0.86564928 0 0 255
1.2419468 1.4973344 0.86448485 0 0 255
1.2394379 1.4984961 0.86332047 0 0 255
1.2369289 1.4996578 0.86215603 0 0 255
1.2344201 1.5008194 0.86099166 0 0 255
1.2319111 1.501981 0.85982722 0 0 255
1.2294022 1.5031427 0.85866284 0 0 255
1.2268932 1.5043044 0.85749841 0 0 255
1.2243843 1.505466 0.85633403 0 0 255
1.2218754 1.5066277 0.85516959 0 0 255
1.2193664 1.5077894 0.85400522 0 0 255
1.2168574 1.5089509 0.85284078 0 0 255
1.2143486 1.5101126 0.85167634 0 0 255
1.2118396 1.5112743 0.85051197 0 0 255
1.2093307 1.5124359 0.84934759 0 0 255
1.2068217 1.5135976 0.84818316 0 0 255
1.2043128 1.5147593 0.84701872 0 0 255
1.4543417 1.4015756 0.96056801 0 0 255
1.4518327 1.4027373 0.95940357 0 0 255
1.4493238 1.4038988 0.9582392 0 0 255
1.4468148 1.4050605 0.95707476 0 0 255
1.4443059 1.4062222 0.95591033 0 0 255
1.4417969 1.4073839 0.95474595 0 0 255
1.439288 1.4085455 0.95358157 0 0 255
1.436779 1.4097072 0.95241714 0 0 255
1.4342701 1.4108689 0.9512527 0 0 255
1.4317611 1.4120305 0.95008832 0 0 255
1.4292523 1.4131922 0.94892395 0 0 255
1.4267433 1.4143538 0.94775951 0 0 255
1.4242344 1.4155154 0.94659507 0 0 255
1.4217254 1.4166771 0.9454307 0 0 255
1.4192165 1.4178388 0.94426632 0 0 255
1.4167076 1.4190004 0.94310188 0 0 255
1.4141986 1.4201621 0.94193745 0 0 255
1.4116898 1.4213238 0.94077307 0 0 255
1.4091808 1.4224854 0.93960869 0 0 255
1.4066719 1.423647 0.93844426 0 0 255
1.4041629 1.4248087 0.93727982 0 0 255
1.401654 1.4259703 0.93611544 0 0 255
1.399145 1.427132 0.93495107 0 0 255
1.3966361 1.4282937 0.93378663 0 0 255
1.3941271 1.4294553 0.93262219 0 0 255
1.3916183 1.430617 0.93145782 0 0 255
1.3891094 1.4317787 0.93029344 0 0 255
1.3866004 1.4329402 0.929129 0 0 255
1.3840915 1.4341019 0.92796457 0 0 255
1.3815825 1.4352636 0.92680019 0 0 255
1.3790736 1.4364253 0.92563581 0 0 255
1.3765646 1.4375869 0.92447138 0 0 255
1.3740557 1.4387486 0.92330694 0 0 255
1.3715467 1.4399103 0.92214257 0 0 255
1.3690379 1.4410719 0.92097819 0 0 255
1.366529 1.4422336 0.91981375 0 0 255
1.36402 1.4433953 0.91864932 0 0 255
1.3615111 1.4445568 0.91748494 0 0 255
1.3590021 1.4457185 0.91632056 0 0 255
1.3564932 1.4468802 0.91515613 0 0 255
1.3539842 1.4480418 0.91399169 0 0 255
1.3514754 1.4492035 0.91282731 0 0 255
1.3489664 1.4503652 0.91166294 0 0 255
1.3464575 1.4515268 0.9104985 0 0 255
1.3439485 1.4526885 0.90933406 0 0 255
1.3414396 1.4538502 0.90816969 0 0 255
1.3389306 1.4550117 0.90700531 0 0 255
1.3364217 1.4561734 0.90584087 0 0 255
1.3339127 1.4573351 0.90467644 0 0 255
1.3314039 1.4584968 0.90351206 0 0 255
1.328895 1.4596584 0.90234768 0 0 255
1.326386 1.4608201 0.90118325 0 0 255
1.3238771 1.4619818 0.90001881 0 0 255
1.3213681 1.4631433 0.89885443 0 0 255
1.3188592 1.464305 0.89769006 0 0 255
1.3163502 1.4654667 0.89652562 0 0 255
1.3138413 1.4666283 0.89536119 0 0 255
1.3113323 1.46779 0.89419681 0 0 255
1.3088235 1.4689517 0.89303243 0 0 255
1.3063145 1.4701133 0.891868 0 0 255
1.3038056 1.471275 0.89070356 0 0 255
1.3012966 1.4724367 0.88953918 0 0 255
1.2987877 1.4735982 0.88837481 0 0 255
1.2962787 1.4747599 0.88721037 0 0 255
1.2937698 1.4759216 0.88604593 0 0 255
1.291261 1.4770832 0.88488156 0 0 255
1.288752 1.4782449 0.88371718 0 0 255
1.2862431 1.4794066 0.88255274 0 0 255
1.2837341 1.4805682 0.88138831 0 0 255
1.2812252 1.4817299 0.88022393 0 0 255
1.2787162 1.4828916 0.87905955 0 0 255
1.2762073 1.4840531 0.87789512 0 0 255
1.2736983 1.4852148 0.87673068 0 0 255
1.2711895 1.4863765 0.8755663 0 0 255
1.2686806 1.4875382 0.87440193 0 0 255
1.2661716 1.4886998 0.87323749 0 0 255
1.2636627 1.4898615 0.87207305 0 0 255
1.2611537 1.4910232 0.87090868 0 0 255
1.2586448 1.4921848 0.8697443 0 0 255
1.2561358 1.4933465 0.86857986 0 0 255
1.2536269 1.4945081 0.86741543 0 0 255
1.2511179 1.4956697 0.86625105 0 0 255
1.2486091 1.4968314 0.86508667 0 0 255
1.2461001 1.4979931 0.86392224 0 0 255
1.2435912 1.4991547 0.8627578 0 0 255
1.2410822 1.5003164 0.86159343 0 0 255
1.2385733 1.5014781 0.86042905 0 0 255
1.2360644 1.5026397 0.85926461 0 0 255
1.2335554 1.5038013 0.85810018 0 0 255
1.2310466 1.504963 0.8569358 0 0 255
1.2285376 1.5061246 0.85577142 0 0 255
1.2260287 1.5072863 0.85460699 0 0 255
1.2235197 1.508448 0.85344255 0 0 255
1.2210108 1.5096097 0.85227817 0 0 255
1.2185018 1.5107713 0.8511138 0 0 255
1.2159929 1.511933 0.84994936 0 0 255
1.2134839 1.5130947 0.84878492 0 0 255
1.2109751 1.5142562 0.84762055 0 0 255
1.2084661 1.5154179 0.84645611 0 0 255
1.2059572 1.5165796 0.84529173 0 0 255
1.455986 1.4033959 0.95884097 0 0 255
1.453477 1.4045576 0.95767653 0 0 255
1.4509681 1.4057192 0.95651215 0 0 255
1.4484591 1.4068809 0.95534778 0 0 255
1.4459503 1.4080426 0.95418334 0 0 255
1.4434413 1.4092042 0.9530189 0 0 255
1.4409324 1.4103658 0.95185447 0 0 255
1.4384234 1.4115275 0.95069009 0 0 255
1.4359144 1.4126892 0.94952571 0 0 255
1.4334055 1.4138508 0.94836128 0 0 255
1.4308966 1.4150125 0.94719684 0 0 255
1.4283876 1.4161742 0.94603246 0 0 255
1.4258788 1.4173357 0.94486809 0 0 255
1.4233698 1.4184974 0.94370365 0 0 255
1.4208609 1.4196591 0.94253922 0 0 255
1.4183519 1.4208207 0.94137484 0 0 255
1.415843 1.4219824 0.94021046 0 0 255
1.413334 1.4231441 0.93904603 0 0 255
1.4108251 1.4243057 0.93788159 0 0 255
1.4083161 1.4254674 0.93671721 0 0 255
1.4058073 1.4266291 0.93555284 0 0 255
1.4032984 1.4277906 0.9343884 0 0 255
1.4007894 1.4289523 0.93322396 0 0 255
1.3982805 1.430114 0.93205959 0 0 255
1.3957715 1.4312756 0.93089521 0 0 255
1.3932626 1.4324373 0.92973077 0 0 255
1.3907536 1.433599 0.92856634 0 0 255
1.3882447 1.4347606 0.92740196 0 0 255
1.3857358 1.4359223 0.92623758 0 0 255
1.3832269 1.437084 0.92507315 0 0 255
1.380718 1.4382455 0.92390871 0 0 255
1.378209 1.4394072 0.92274433 0 0 255
1.3757001 1.4405689 0.92157996 0 0 255
1.3731911 1.4417305 0.92041552 0 0 255
1.3706822 1.4428922 0.91925108 0 0 255
1.3681732 1.4440539 0.91808671 0 0 255
1.3656644 1.4452156 0.91692233 0 0 255
1.3631554 1.4463772 0.91575789 0 0 255
1.3606465 1.4475389 0.91459346 0 0 255
1.3581375 1.4487005 0.91342908 0 0 255
1.3556286 1.4498621 0.9122647 0 0 255
1.3531196 1.4510238 0.91110027 0 0 255
1.3506107 1.4521855 0.90993583 0 0 255
1.3481019 1.4533471 0.90877146 0 0 255
1.3455929 1.4545088 0.90760708 0 0 255
1.343084 1.4556705 0.90644264 0 0 255
1.340575 1.4568321 0.90527821 0 0 255
1.3380661 1.4579937 0.90411383 0 0 255
1.3355571 1.4591554 0.90294945 0 0 255
1.3330482 1.460317 0.90178502 0 0 255
1.3305392 1.4614787 0.90062058 0 0 255
1.3280303 1.4626404 0.8994562 0 0 255
1.3255213 1.4638021 0.89829183 0 0 255
1.3230125 1.4649637 0.89712739 0 0 255
1.3205035 1.4661254 0.89596295 0 0 255
1.3179946 1.4672871 0.89479858 0 0 255
1.3154857 1.4684486 0.8936342 0 0 255
1.3129767 1.4696103 0.89246976 0 0 255
1.3104678 1.470772 0.89130533 0 0 255
1.3079588 1.4719336 0.89014095 0 0 255
1.30545 1.4730953 0.88897657 0 0 255
1.302941 1.474257 0.88781214 0 0 255
1.3004321 1.4754186 0.8866477 0 0 255
1.2979231 1.4765803 0.88548332 0 0 255
1.2954142 1.477742 0.88431895 0 0 255
1.2929052 1.4789035 0.88315451 0 0 255
1.2903963 1.4800652 0.88199008 0 0 255
1.2878873 1.4812269 0.8808257 0 0 255
1.2853785 1.4823885 0.87966132 0 0 255
1.2828696 1.4835502 0.87849689 0 0 255
1.2803606 1.4847119 0.87733245 0 0 255
1.2778517 1.4858735 0.87616807 0 0 255
1.2753427 1.4870352 0.8750037 0 0 255
1.2728338 1.4881968 0.87383926 0 0 255
1.2703248 1.4893584 0.87267482 0 0 255
1.2678159 1.4905201 0.87151045 0 0 255
1.2653069 1.4916818 0.87034607 0 0 255
1.2627981 1.4928434 0.86918163 0 0 255
1.2602891 1.4940051 0.8680172 0 0 255
1.2577802 1.4951668 0.86685282 0 0 255
1.2552712 1.4963285 0.86568844 0 0 255
1.2527623 1.49749 0.86452401 0 0 255
1.2502534 1.4986517 0.86335957 0 0 255
1.2477444 1.4998134 0.86219519 0 0 255
1.2452356 1.500975 0.86103082 0 0 255
1.2427266 1.5021367 0.85986638 0 0 255
1.2402177 1.5032984 0.85870194 0 0 255
1.2377087 1.50446 0.85753757 0 0 255
1.2351998 1.5056217 0.85637319 0 0 255
1.2326908 1.5067834 0.85520875 0 0 255
1.2301819 1.5079449 0.85404432 0 0 255
1.2276731 1.5091066 0.85287994 0 0 255
1.2251641 1.5102683 0.85171556 0 0 255
1.2226551 1.5114299 0.85055113 0 0 255
1.2201462 1.5125916 0.84938669 0 0 255
1.2176373 1.5137533 0.84822232 0 0 255
1.2151283 1.514915 0.84705794 0 0 255
1.2126193 1.5160766 0.8458935 0 0 255
1.2101104 1.5172383 0.84472907 0 0 255
1.2076015 1.5184 0.84356469 0 0 255
1.4576303 1.4052162 0.95711392 0 0 255
1.4551214 1.4063779 0.95594954 0 0 255
1.4526124 1.4075395 0.95478511 0 0 255
1.4501035 1.4087012 0.95362067 0 0 255
1.4475945 1.4098629 0.9524563 0 0 255
1.4450856 1.4110245 0.95129192 0 0 255
1.4425766 1.4121861 0.95012748 0 0 255
1.4400678 1.4133478 0.94896305 0 0 255
1.4375588 1.4145095 0.94779867 0 0 255
1.4350499 1.4156711 0.94663429 0 0 255
1.4325409 1.4168328 0.94546986 0 0 255
1.430032 1.4179945 0.94430542 0 0 255
1.427523 1.4191561 0.94314104 0 0 255
1.4250141 1.4203178 0.94197667 0 0 255
1.4225053 1.4214795 0.94081223 0 0 255
1.4199963 1.422641 0.93964779 0 0 255
1.4174874 1.4238027 0.93848342 0 0 255
1.4149784 1.4249644 0.93731904 0 0 255
1.4124695 1.426126 0.9361546 0 0 255
1.4099605 1.4272877 0.93499017 0 0 255
1.4074516 1.4284494 0.93382579 0 0 255
1.4049426 1.429611 0.93266141 0 0 255
1.4024338 1.4307727 0.93149698 0 0 255
1.3999248 1.4319344 0.93033254 0 0 255
1.3974159 1.4330959 0.92916816 0 0 255
1.394907 1.4342576 0.92800379 0 0 255
1.392398 1.4354193 0.92683935 0 0 255
1.3898891 1.4365809 0.92567492 0 0 255
1.3873801 1.4377426 0.92451054 0 0 255
1.3848712 1.4389043 0.92334616 0 0 255
1.3823622 1.4400659 0.92218173 0 0 255
1.3798534 1.4412276 0.92101729 0 0 255
1.3773444 1.4423892 0.91985291 0 0 255
1.3748355 1.4435508 0.91868854 0 0 255
1.3723266 1.4447125 0.9175241 0 0 255
1.3698176 1.4458742 0.91635966 0 0 255
1.3673087 1.4470358 0.91519529 0 0 255
1.3647997 1.4481975 0.91403091 0 0 255
1.3622909 1.4493592 0.91286647 0 0 255
1.3597819 1.4505209 0.91170204 0 0 255
1.357273 1.4516824 0.91053766 0 0 255
1.354764 1.4528441 0.90937328 0 0 255
1.3522551 1.4540058 0.90820885 0 0 255
1.3497461 1.4551674 0.90704441 0 0 255
1.3472372 1.4563291 0.90588003 0 0 255
1.3447282 1.4574908 0.90471566 0 0 255
1.3422194 1.4586524 0.90355122 0 0 255
1.3397105 1.4598141 0.90238678 0 0 255
1.3372015 1.4609758 0.90122241 0 0 255
1.3346926 1.4621373 0.90005803 0 0 255
1.3321836 1.463299 0.89889359 0 0 255
1.3296747 1.4644607 0.89772916 0 0 255
1.3271657 1.4656223 0.89656478 0 0 255
1.3246568 1.466784 0.8954004 0 0 255
1.3221478 1.4679457 0.89423597 0 0 255
1.319639 1.4691074 0.89307153 0 0 255
1.31713 1.470269 0.89190716 0 0 255
1.3146211 1.4714307 0.89074272 0 0 255
1.3121121 1.4725924 0.88957834 0 0 255
1.3096032 1.4737539 0.88841391 0 0 255
1.3070942 1.4749156 0.88724953 0 0 255
1.3045853 1.4760773 0.88608509 0 0 255
1.3020763 1.4772389 0.88492072 0 0 255
1.2995675 1.4784006 0.88375628 0 0 255
1.2970586 1.4795623 0.8825919 0 0 255
1.2945496 1.4807239 0.88142747 0 0 255
1.2920407 1.4818856 0.88026309 0 0 255
1.2895317 1.4830472 0.87909865 0 0 255
1.2870228 1.4842088 0.87793428 0 0 255
1.2845138 1.4853705 0.87676984 0 0 255
1.282005 1.4865322 0.87560546 0 0 255
1.279496 1.4876938 0.87444103 0 0 255
1.2769871 1.4888555 0.87327665 0 0 255
1.2744782 1.4900172 0.87211227 0 0 255
1.2719692 1.4911788 0.87094784 0 0 255
1.2694603 1.4923404 0.8697834 0 0 255
1.2669513 1.4935021 0.86861902 0 0 255
1.2644424 1.4946637 0.86745465 0 0 255
1.2619334 1.4958254 0.86629021 0 0 255
1.2594246 1.4969871 0.86512578 0 0 255
1.2569156 1.4981487 0.8639614 0 0 255
1.2544067 1.4993104 0.86279702 0 0 255
1.2518977 1.5004721 0.86163259 0 0 255
1.2493888 1.5016338 0.86046815 0 0 255
1.2468798 1.5027953 0.85930377 0 0 255
1.2443709 1.503957 0.8581394 0 0 255
1.2418621 1.5051187 0.85697496 0 0 255
1.2393531 1.5062803 0.85581052 0 0 255
1.2368442 1.507442 0.85464615 0 0 255
1.2343352 1.5086037 0.85348177 0 0 255
1.2318263 1.5097653 0.85231733 0 0 255
1.2293173 1.510927 0.8511529 0 0 255
1.2268084 1.5120887 0.84998852 0 0 255
1.2242994 1.5132502 0.84882408 0 0 255
1.2217906 1.5144119 0.84765971 0 0 255
1.2192816 1.5155736 0.84649527 0 0 255
1.2167727 1.5167352 0.84533089 0 0 255
1.2142637 1.5178969 0.84416646 0 0 255
1.2117548 1.5190586 0.84300208 0 0 255
1.2092458 1.5202203 0.84183764 0 0 255
1.4592746 1.4070365 0.95538688 0 0 255
1.4567658 1.4081981 0.95422244 0 0 255
1.4542568 1.4093598 0.95305806 0 0 255
1.4517479 1.4105215 0.95189369 0 0 255
1.4492389 1.4116832 0.95072925 0 0 255
1.44673 1.4128448 0.94956481 0 0 255
1.444221 1.4140065 0.94840044 0 0 255
1.4417121 1.4151682 0.94723606 0 0 255
1.4392031 1.4163297 0.94607162 0 0 255
1.4366943 1.4174914 0.94490719 0 0 255
1.4341853 1.4186531 0.94374281 0 0 255
1.4316764 1.4198147 0.94257843 0 0 255
1.4291674 1.4209764 0.941414 0 0 255
1.4266585 1.4221381 0.94024956 0 0 255
1.4241495 1.4232998 0.93908519 0 0 255
1.4216406 1.4244614 0.93792081 0 0 255
1.4191316 1.4256231 0.93675637 0 0 255
1.4166228 1.4267848 0.93559194 0 0 255
1.4141139 1.4279463 0.93442756 0 0 255
1.4116049 1.429108 0.93326318 0 0 255
1.409096 1.4302697 0.93209875 0 0 255
1.406587 1.4314313 0.93093431 0 0 255
1.4040781 1.432593 0.92976993 0 0 255
1.4015691 1.4337547 0.92860556 0 0 255
1.3990602 1.4349163 0.92744112 0 0 255
1.3965513 1.436078 0.92627668 0 0 255
1.3940424 1.4372396 0.92511231 0 0 255
1.3915334 1.4384012 0.92394793 0 0 255
1.3890245 1.4395629 0.92278349 0 0 255
1.3865156 1.4407246 0.92161906 0 0 255
1.3840066 1.4418862 0.92045468 0 0 255
1.3814977 1.4430479 0.9192903 0 0 255
1.3789887 1.4442096 0.91812587 0 0 255
1.3764799 1.4453712 0.91696143 0 0 255
1.3739709 1.4465328 0.91579705 0 0 255
1.371462 1.4476945 0.91463268 0 0 255
1.368953 1.4488561 0.91346824 0 0 255
1.3664441 1.4500178 0.91230381 0 0 255
1.3639351 1.4511795 0.91113943 0 0 255
1.3614262 1.4523411 0.90997505 0 0 255
1.3589172 1.4535028 0.90881062 0 0 255
1.3564084 1.4546645 0.90764618 0 0 255
1.3538995 1.455826 0.9064818 0 0 255
1.3513905 1.4569877 0.90531743 0 0 255
1.3488816 1.4581494 0.90415299 0 0 255
1.3463726 1.4593111 0.90298855 0 0 255
1.3438637 1.4604727 0.90182418 0 0 255
1.3413547 1.4616344 0.9006598 0 0 255
1.3388458 1.4627961 0.89949536 0 0 255
1.3363369 1.4639577 0.89833093 0 0 255
1.333828 1.4651194 0.89716655 0 0 255
1.331319 1.4662811 0.89600217 0 0 255
1.3288101 1.4674426 0.89483774 0 0 255
1.3263011 1.4686043 0.8936733 0 0 255
1.3237922 1.469766 0.89250892 0 0 255
1.3212833 1.4709276 0.89134455 0 0 255
1.3187743 1.4720893 0.89018011 0 0 255
1.3162655 1.473251 0.88901567 0 0 255
1.3137565 1.4744126 0.8878513 0 0 255
1.3112476 1.4755743 0.88668692 0 0 255
1.3087386 1.4767359 0.88552248 0 0 255
1.3062297 1.4778976 0.88435805 0 0 255
1.3037207 1.4790592 0.88319367 0 0 255
1.3012118 1.4802209 0.88202929 0 0 255
1.2987028 1.4813826 0.88086486 0 0 255
1.296194 1.4825442 0.87970042 0 0 255
1.293685 1.4837059 0.87853605 0 0 255
1.2911761 1.4848676 0.87737167 0 0 255
1.2886672 1.4860291 0.87620723 0 0 255
1.2861582 1.4871908 0.8750428 0 0 255
1.2836493 1.4883525 0.87387842 0 0 255
1.2811403 1.4895141 0.87271404 0 0 255
1.2786314 1.4906758 0.87154961 0 0 255
1.2761225 1.4918375 0.87038517 0 0 255
1.2736136 1.4929991 0.86922079 0 0 255
1.2711046 1.4941608 0.86805642 0 0 255
1.2685957 1.4953225 0.86689198 0 0 255
1.2660868 1.496484 0.86572754 0 0 255
1.2635778 1.4976457 0.86456317 0 0 255
1.2610688 1.4988074 0.86339879 0 0 255
1.2585599 1.499969 0.86223435 0 0 255
1.2560511 1.5011307 0.86106992 0 0 255
1.2535421 1.5022924 0.85990554 0 0 255
1.2510332 1.503454 0.85874116 0 0 255
1.2485242 1.5046157 0.85757673 0 0 255
1.2460153 1.5057774 0.85641229 0 0 255
1.2435063 1.5069389 0.85524791 0 0 255
1.2409974 1.5081006 0.85408354 0 0 255
1.2384884 1.5092623 0.8529191 0 0 255
1.2359796 1.5104239 0.85175467 0 0 255
1.2334707 1.5115856 0.85059029 0 0 255
1.2309617 1.5127473 0.84942591 0 0 255
1.2284528 1.513909 0.84826148 0 0 255
1.2259438 1.5150706 0.84709704 0 0 255
1.2234349 1.5162323 0.84593266 0 0 255
1.2209259 1.5173939 0.84476823 0 0 255
1.2184169 1.5185555 0.84360385 0 0 255
1.2159081 1.5197172 0.84243941 0 0 255
1.2133992 1.5208789 0.84127504 0 0 255
1.2108902 1.5220405 0.8401106 0 0 255
1.460919 1.4088569 0.95365989 0 0 255
1.45841 1.4100184 0.95249546 0 0 255
1.4559011 1.4111801 0.95133102 0 0 255
1.4533921 1.4123418 0.95016664 0 0 255
1.4508833 1.4135034 0.94900227 0 0 255
1.4483743 1.4146651 0.94783783 0 0 255
1.4458654 1.4158268 0.94667339 0 0 255
1.4433564 1.4169885 0.94550896 0 0 255
1.4408475 1.4181501 0.94434458 0 0 255
1.4383385 1.4193118 0.9431802 0 0 255
1.4358296 1.4204735 0.94201577 0 0 255
1.4333208 1.421635 0.94085133 0 0 255
1.4308118 1.4227967 0.93968695 0 0 255
1.4283029 1.4239584 0.93852258 0 0 255
1.4257939 1.42512 0.93735814 0 0 255
1.423285 1.4262817 0.9361937 0 0 255
1.420776 1.4274434 0.93502933 0 0 255
1.4182671 1.428605 0.93386495 0 0 255
1.4157581 1.4297667 0.93270051 0 0 255
1.4132493 1.4309283 0.93153608 0 0 255
1.4107403 1.43209 0.9303717 0 0 255
1.4082314 1.4332516 0.92920732 0 0 255
1.4057225 1.4344133 0.92804289 0 0 255
1.4032135 1.435575 0.92687845 0 0 255
1.4007046 1.4367366 0.92571408 0 0 255
1.3981956 1.4378983 0.9245497 0 0 255
1.3956867 1.43906 0.92338526 0 0 255
1.3931777 1.4402215 0.92222089 0 0 255
1.3906689 1.4413832 0.92105651 0 0 255
1.3881599 1.4425449 0.91989207 0 0 255
1.385651 1.4437065 0.91872764 0 0 255
1.383142 1.4448682 0.91756326 0 0 255
1.3806331 1.4460299 0.91639882 0 0 255
1.3781242 1.4471915 0.91523445 0 0 255
1.3756152 1.4483532 0.91407001 0 0 255
1.3731064 1.4495149 0.91290563 0 0 255
1.3705974 1.4506764 0.9117412 0 0 255
1.3680885 1.4518381 0.91057682 0 0 255
1.3655795 1.4529998 0.90941238 0 0 255
1.3630706 1.4541614 0.90824801 0 0 255
1.3605616 1.4553231 0.90708357 0 0 255
1.3580527 1.4564848 0.90591919 0 0 255
1.3555437 1.4576464 0.90475476 0 0 255
1.3530349 1.4588081 0.90359038 0 0 255
1.3505259 1.4599698 0.90242594 0 0 255
1.348017 1.4611313 0.90126157 0 0 255
1.3455081 1.462293 0.90009713 0 0 255
1.3429991 1.4634547 0.89893275 0 0 255
1.3404902 1.4646163 0.89776832 0 0 255
1.3379812 1.465778 0.89660394 0 0 255
1.3354723 1.4669397 0.89543951 0 0 255
1.3329633 1.4681014 0.89427513 0 0 255
1.3304545 1.469263 0.89311069 0 0 255
1.3279455 1.4704247 0.89194632 0 0 255
1.3254366 1.4715863 0.89078188 0 0 255
1.3229276 1.4727479 0.8896175 0 0 255
1.3204187 1.4739096 0.88845307 0 0 255
1.3179097 1.4750713 0.88728869 0 0 255
1.3154008 1.4762329 0.88612425 0 0 255
1.3128918 1.4773946 0.88495982 0 0 255
1.310383 1.4785563 0.88379544 0 0 255
1.307874 1.4797179 0.88263106 0 0 255
1.3053651 1.4808795 0.88146663 0 0 255
1.3028562 1.4820412 0.88030219 0 0 255
1.3003472 1.4832028 0.87913781 0 0 255
1.2978383 1.4843645 0.87797344 0 0 255
1.2953293 1.4855262 0.876809 0 0 255
1.2928205 1.4866879 0.87564456 0 0 255
1.2903115 1.4878495 0.87448019 0 0 255
1.2878026 1.4890112 0.87331581 0 0 255
1.2852936 1.4901729 0.87215137 0 0 255
1.2827847 1.4913344 0.87098694 0 0 255
1.2802758 1.4924961 0.86982256 0 0 255
1.2777668 1.4936578 0.86865819 0 0 255
1.2752579 1.4948194 0.86749375 0 0 255
1.2727489 1.4959811 0.86632937 0 0 255
1.2702401 1.4971428 0.86516494 0 0 255
1.2677311 1.4983044 0.86400056 0 0 255
1.2652222 1.4994661 0.86283612 0 0 255
1.2627132 1.5006278 0.86167175 0 0 255
1.2602043 1.5017893 0.86050731 0 0 255
1.2576954 1.502951 0.85934293 0 0 255
1.2551864 1.5041127 0.8581785 0 0 255
1.2526774 1.5052743 0.85701412 0 0 255
1.2501686 1.506436 0.85584968 0 0 255
1.2476597 1.5075977 0.85468531 0 0 255
1.2451507 1.5087593 0.85352087 0 0 255
1.2426418 1.509921 0.85235649 0 0 255
1.2401328 1.5110826 0.85119206 0 0 255
1.2376239 1.5122442 0.85002768 0 0 255
1.2351149 1.5134059 0.84886324 0 0 255
1.2326061 1.5145676 0.84769887 0 0 255
1.2300971 1.5157292 0.84653443 0 0 255
1.2275882 1.5168909 0.84537005 0 0 255
1.2250792 1.5180526 0.84420562 0 0 255
1.2225703 1.5192143 0.84304118 0 0 255
1.2200613 1.5203758 0.8418768 0 0 255
1.2175524 1.5215375 0.84071243 0 0 255
1.2150434 1.5226992 0.83954799 0 0 255
1.2125345 1.5238608 0.83838356 0 0 255
1.4625634 1.4106772 0.95193279 0 0 255
1.4600544 1.4118388 0.95076841 0 0 255
1.4575455 1.4130005 0.94960403 0 0 255
1.4550365 1.4141622 0.9484396 0 0 255
1.4525276 1.4153237 0.94727516 0 0 255
1.4500186 1.4164854 0.94611079 0 0 255
1.4475098 1.4176471 0.94494641 0 0 255
1.4450008 1.4188087 0.94378197 0 0 255
1.4424919 1.4199704 0.94261754 0 0 255
1.4399829 1.4211321 0.94145316 0 0 255
1.437474 1.4222938 0.94028878 0 0 255
1.434965 1.4234554 0.93912435 0 0 255
1.4324561 1.4246171 0.93795991 0 0 255
1.4299471 1.4257787 0.93679553 0 0 255
1.4274383 1.4269403 0.93563116 0 0 255
1.4249293 1.428102 0.93446672 0 0 255
1.4224204 1.4292637 0.93330228 0 0 255
1.4199115 1.4304253 0.93213791 0 0 255
1.4174025 1.431587 0.93097353 0 0 255
1.4148936 1.4327487 0.92980909 0 0 255
1.4123846 1.4339103 0.92864466 0 0 255
1.4098758 1.4350719 0.92748028 0 0 255
1.4073668 1.4362336 0.9263159 0 0 255
1.4048579 1.4373952 0.92515147 0 0 255
1.4023489 1.4385569 0.92398703 0 0 255
1.39984 1.4397186 0.92282265 0 0 255
1.397331 1.4408803 0.92165828 0 0 255
1.3948221 1.4420419 0.92049384 0 0 255
1.3923132 1.4432036 0.9193294 0 0 255
1.3898042 1.4443653 0.91816503 0 0 255
1.3872954 1.4455268 0.91700065 0 0 255
1.3847864 1.4466885 0.91583622 0 0 255
1.3822775 1.4478502 0.91467178 0 0 255
1.3797685 1.4490118 0.9135074 0 0 255
1.3772596 1.4501735 0.91234303 0 0 255
1.3747506 1.4513352 0.91117859 0 0 255
1.3722417 1.4524968 0.91001415 0 0 255
1.3697327 1.4536585 0.90884978 0 0 255
1.3672239 1.4548202 0.9076854 0 0 255
1.364715 1.4559817 0.90652096 0 0 255
1.362206 1.4571434 0.90535653 0 0 255
1.3596971 1.4583051 0.90419215 0 0 255
1.3571881 1.4594667 0.90302777 0 0 255
1.3546792 1.4606284 0.90186334 0 0 255
1.3521702 1.4617901 0.9006989 0 0 255
1.3496614 1.4629517 0.89953452 0 0 255
1.3471524 1.4641134 0.89837015 0 0 255
1.3446435 1.465275 0.89720571 0 0 255
1.3421345 1.4664366 0.89604127 0 0 255
1.3396256 1.4675983 0.8948769 0 0 255
1.3371166 1.46876 0.89371252 0 0 255
1.3346077 1.4699216 0.89254808 0 0 255
1.3320987 1.4710833 0.89138365 0 0 255
1.3295898 1.472245 0.89021927 0 0 255
1.327081 1.4734067 0.88905489 0 0 255
1.324572 1.4745682 0.88789046 0 0 255
1.3220631 1.4757299 0.88672602 0 0 255
1.3195541 1.4768916 0.88556165 0 0 255
1.3170452 1.4780532 0.88439721 0 0 255
1.3145362 1.4792149 0.88323283 0 0 255
1.3120273 1.4803766 0.8820684 0 0 255
1.3095183 1.4815382 0.88090402 0 0 255
1.3070095 1.4826999 0.87973958 0 0 255
1.3045005 1.4838616 0.87857521 0 0 255
1.3019916 1.4850231 0.87741077 0 0 255
1.2994826 1.4861848 0.87624639 0 0 255
1.2969737 1.4873465 0.87508196 0 0 255
1.2944648 1.4885081 0.87391758 0 0 255
1.2919558 1.4896698 0.87275314 0 0 255
1.2894469 1.4908315 0.87158877 0 0 255
1.286938 1.4919931 0.87042433 0 0 255
1.2844291 1.4931548 0.86925995 0 0 255
1.2819201 1.4943165 0.86809552 0 0 255
1.2794112 1.4954782 0.86693114 0 0 255
1.2769022 1.4966397 0.86576676 0 0 255
1.2743933 1.4978014 0.86460233 0 0 255
1.2718844 1.4989631 0.86343789 0 0 255
1.2693754 1.5001247 0.86227351 0 0 255
1.2668664 1.5012864 0.86110914 0 0 255
1.2643576 1.5024481 0.8599447 0 0 255
1.2618487 1.5036097 0.85878026 0 0 255
1.2593397 1.5047714 0.85761589 0 0 255
1.2568308 1.505933 0.85645151 0 0 255
1.2543218 1.5070946 0.85528708 0 0 255
1.2518129 1.5082563 0.85412264 0 0 255
1.2493039 1.509418 0.85295826 0 0 255
1.2467951 1.5105796 0.85179389 0 0 255
1.2442861 1.5117413 0.85062945 0 0 255
1.2417772 1.512903 0.84946501 0 0 255
1.2392683 1.5140646 0.84830064 0 0 255
1.2367593 1.5152262 0.84713626 0 0 255
1.2342504 1.5163879 0.84597182 0 0 255
1.2317414 1.5175495 0.84480739 0 0 255
1.2292325 1.5187112 0.84364301 0 0 255
1.2267236 1.5198729 0.84247857 0 0 255
1.2242147 1.5210346 0.8413142 0 0 255
1.2217057 1.5221962 0.84014976 0 0 255
1.2191968 1.5233579 0.83898532 0 0 255
1.2166878 1.5245196 0.83782095 0 0 255
1.2141789 1.5256811 0.83665657 0 0 255
1.4642076 1.4124975 0.9502058 0 0 255
1.4616988 1.4136591 0.94904137 0 0 255
1.4591898 1.4148208 0.94787699 0 0 255
1.4566809 1.4159825 0.94671261 0 0 255
1.4541719 1.4171441 0.94554818 0 0 255
1.451663 1.4183058 0.94438374 0 0 255
1.449154 1.4194674 0.9432193 0 0 255
1.4466451 1.420629 0.94205493 0 0 255
1.4441361 1.4217907 0.94089055 0 0 255
1.4416273 1.4229524 0.93972611 0 0 255
1.4391184 1.424114 0.93856168 0 0 255
1.4366094 1.4252757 0.9373973 0 0 255
1.4341005 1.4264374 0.93623292 0 0 255
1.4315915 1.427599 0.93506849 0 0 255
1.4290826 1.4287606 0.93390405 0 0 255
1.4265736 1.4299223 0.93273968 0 0 255
1.4240648 1.4310839 0.9315753 0 0 255
1.4215558 1.4322456 0.93041086 0 0 255
1.4190469 1.4334073 0.92924643 0 0 255
1.4165379 1.434569 0.92808205 0 0 255
1.414029 1.4357306 0.92691767 0 0 255
1.4115201 1.4368923 0.92575324 0 0 255
1.4090111 1.438054 0.9245888 0 0 255
1.4065022 1.4392155 0.92342442 0 0 255
1.4039932 1.4403772 0.92226005 0 0 255
1.4014844 1.4415389 0.92109561 0 0 255
1.3989754 1.4427005 0.91993117 0 0 255
1.3964665 1.4438622 0.9187668 0 0 255
1.3939575 1.4450239 0.91760242 0 0 255
1.3914486 1.4461855 0.91643798 0 0 255
1.3889396 1.4473472 0.91527355 0 0 255
1.3864307 1.4485089 0.91410917 0 0 255
1.3839219 1.4496704 0.91294479 0 0 255
1.3814129 1.4508321 0.91178036 0 0 255
1.378904 1.4519938 0.91061592 0 0 255
1.376395 1.4531554 0.90945154 0 0 255
1.3738861 1.4543171 0.90828717 0 0 255
1.3713771 1.4554788 0.90712273 0 0 255
1.3688682 1.4566405 0.90595829 0 0 255
1.3663592 1.4578021 0.90479392 0 0 255
1.3638504 1.4589638 0.90362954 0 0 255
1.3613414 1.4601254 0.90246511 0 0 255
1.3588325 1.461287 0.90130067 0 0 255
1.3563235 1.4624487 0.90013629 0 0 255
1.3538146 1.4636104 0.89897192 0 0 255
1.3513057 1.464772 0.89780748 0 0 255
1.3487967 1.4659337 0.89664304 0 0 255
1.3462878 1.4670954 0.89547867 0 0 255
1.3437788 1.468257 0.89431429 0 0 255
1.34127 1.4694186 0.89314985 0 0 255
1.338761 1.4705803 0.89198542 0 0 255
1.3362521 1.4717419 0.89082104 0 0 255
1.3337431 1.4729036 0.88965666 0 0 255
1.3312342 1.4740653 0.88849223 0 0 255
1.3287252 1.4752269 0.88732779 0 0 255
1.3262163 1.4763886 0.88616341 0 0 255
1.3237073 1.4775503 0.88499904 0 0 255
1.3211985 1.4787118 0.8838346 0 0 255
1.3186896 1.4798735 0.88267016 0 0 255
1.3161806 1.4810352 0.88150579 0 0 255
1.3136717 1.4821969 0.88034141 0 0 255
1.3111627 1.4833585 0.87917697 0 0 255
1.3086538 1.4845202 0.87801254 0 0 255
1.3061448 1.4856819 0.87684816 0 0 255
1.303636 1.4868435 0.87568378 0 0 255
1.301127 1.4880052 0.87451935 0 0 255
1.2986181 1.4891669 0.87335491 0 0 255
1.2961091 1.4903284 0.87219054 0 0 255
1.2936002 1.4914901 0.87102616 0 0 255
1.2910912 1.4926518 0.86986172 0 0 255
1.2885823 1.4938134 0.86869729 0 0 255
1.2860734 1.4949751 0.86753291 0 0 255
1.2835644 1.4961368 0.86636853 0 0 255
1.2810556 1.4972984 0.8652041 0 0 255
1.2785466 1.4984601 0.86403966 0 0 255
1.2760377 1.4996217 0.86287528 0 0 255
1.2735287 1.5007833 0.86171091 0 0 255
1.2710198 1.501945 0.86054647 0 0 255
1.2685108 1.5031067 0.85938203 0 0 255
1.2660019 1.5042683 0.85821766 0 0 255
1.2634931 1.50543 0.85705328 0 0 255
1.2609841 1.5065917 0.85588884 0 0 255
1.2584751 1.5077534 0.85472441 0 0 255
1.2559662 1.5089149 0.85356003 0 0 255
1.2534573 1.5100766 0.85239565 0 0 255
1.2509483 1.5112383 0.85123122 0 0 255
1.2484394 1.5123999 0.85006678 0 0 255
1.2459304 1.5135616 0.8489024 0 0 255
1.2434216 1.5147233 0.84773803 0 0 255
1.2409126 1.5158849 0.84657359 0 0 255
1.2384037 1.5170466 0.84540915 0 0 255
1.2358947 1.5182083 0.84424478 0 0 255
1.2333858 1.5193698 0.8430804 0 0 255
1.2308769 1.5205315 0.84191597 0 0 255
1.2283679 1.5216932 0.84075153 0 0 255
1.2258589 1.5228548 0.83958715 0 0 255
1.22335 1.5240165 0.83842278 0 0 255
1.2208411 1.5251782 0.83725834 0 0 255
1.2183322 1.5263398 0.8360939 0 0 255
1.2158232 1.5275015 0.83492953 0 0 255
1.465852 1.4143178 0.94847876 0 0 255
1.4633431 1.4154794 0.94731438 0 0 255
1.4608341 1.4166411 0.94614995 0 0 255
1.4583253 1.4178028 0.94498551 0 0 255
1.4558163 1.4189644 0.94382113 0 0 255
1.4533074 1.4201261 0.94265676 0 0 255
1.4507984 1.4212878 0.94149232 0 0 255
1.4482895 1.4224494 0.94032788 0 0 255
1.4457805 1.423611 0.93916345 0 0 255
1.4432716 1.4247727 0.93799907 0 0 255
1.4407626 1.4259343 0.93683469 0 0 255
1.4382538 1.427096 0.93567026 0 0 255
1.4357448 1.4282577 0.93450582 0 0 255
1.4332359 1.4294193 0.93334144 0 0 255
1.4307269 1.430581 0.93217707 0 0 255
1.428218 1.4317427 0.93101263 0 0 255
1.4257091 1.4329042 0.92984819 0 0 255
1.4232001 1.4340659 0.92868382 0 0 255
1.4206913 1.4352276 0.92751944 0 0 255
1.4181823 1.4363892 0.926355 0 0 255
1.4156734 1.4375509 0.92519057 0 0 255
1.4131644 1.4387126 0.92402619 0 0 255
1.4106555 1.4398743 0.92286181 0 0 255
1.4081465 1.4410359 0.92169738 0 0 255
1.4056376 1.4421976 0.92053294 0 0 255
1.4031286 1.4433593 0.91936857 0 0 255
1.4006197 1.4445208 0.91820419 0 0 255
1.3981109 1.4456825 0.91703975 0 0 255
1.3956019 1.4468442 0.91587538 0 0 255
1.393093 1.4480058 0.91471094 0 0 255
1.390584 1.4491675 0.91354656 0 0 255
1.3880751 1.4503292 0.91238213 0 0 255
1.3855661 1.4514908 0.91121775 0 0 255
1.3830572 1.4526525 0.91005331 0 0 255
1.3805482 1.4538141 0.90888894 0 0 255
1.3780394 1.4549757 0.9077245 0 0 255
1.3755304 1.4561374 0.90656012 0 0 255
1.3730215 1.4572991 0.90539569 0 0 255
1.3705126 1.4584607 0.90423131 0 0 255
1.3680036 1.4596224 0.90306687 0 0 255
1.3654947 1.4607841 0.9019025 0 0 255
1.3629857 1.4619458 0.90073806 0 0 255
1.3604769 1.4631073 0.89957368 0 0 255
1.3579679 1.464269 0.89840925 0 0 255
1.355459 1.4654307 0.89724487 0 0 255
1.35295 1.4665923 0.89608043 0 0 255
1.3504411 1.467754 0.89491606 0 0 255
1.3479321 1.4689157 0.89375162 0 0 255
1.3454232 1.4700773 0.89258724 0 0 255
1.3429142 1.471239 0.89142281 0 0 255
1.3404053 1.4724007 0.89025843 0 0 255
1.3378963 1.4735622 0.889094 0 0 255
1.3353875 1.4747239 0.88792962 0 0 255
1.3328786 1.4758856 0.88676518 0 0 255
1.3303696 1.4770472 0.88560081 0 0 255
1.3278607 1.4782089 0.88443637 0 0 255
1.3253517 1.4793706 0.88327199 0 0 255
1.3228428 1.4805322 0.88210756 0 0 255
1.3203338 1.4816939 0.88094318 0 0 255
1.317825 1.4828556 0.87977874 0 0 255
1.315316 1.4840171 0.87861431 0 0 255
1.3128071 1.4851788 0.87744993 0 0 255
1.3102981 1.4863405 0.87628555 0 0 255
1.3077892 1.4875021 0.87512112 0 0 255
1.3052802 1.4886638 0.87395668 0 0 255
1.3027713 1.4898255 0.8727923 0 0 255
1.3002625 1.4909872 0.87162793 0 0 255
1.2977535 1.4921488 0.87046349 0 0 255
1.2952446 1.4933105 0.86929905 0 0 255
1.2927356 1.4944721 0.86813468 0 0 255
1.2902267 1.4956337 0.8669703 0 0 255
1.2877177 1.4967954 0.86580586 0 0 255
1.2852088 1.4979571 0.86464149 0 0 255
1.2826998 1.4991187 0.86347705 0 0 255
1.2801909 1.5002804 0.86231267 0 0 255
1.2776821 1.5014421 0.86114824 0 0 255
1.2751731 1.5026037 0.85998386 0 0 255
1.2726642 1.5037653 0.85881943 0 0 255
1.2701552 1.504927 0.85765505 0 0 255
1.2676463 1.5060886 0.85649061 0 0 255
1.2651373 1.5072503 0.85532624 0 0 255
1.2626284 1.508412 0.8541618 0 0 255
1.2601194 1.5095736 0.85299742 0 0 255
1.2576106 1.5107353 0.85183299 0 0 255
1.2551016 1.511897 0.85066861 0 0 255
1.2525927 1.5130585 0.84950417 0 0 255
1.2500837 1.5142202 0.8483398 0 0 255
1.2475748 1.5153819 0.84717536 0 0 255
1.2450659 1.5165436 0.84601098 0 0 255
1.2425569 1.5177052 0.84484655 0 0 255
1.2400481 1.5188669 0.84368217 0 0 255
1.2375391 1.5200286 0.84251773 0 0 255
1.2350302 1.5211902 0.84135336 0 0 255
1.2325212 1.5223519 0.84018892 0 0 255
1.2300123 1.5235136 0.83902454 0 0 255
1.2275033 1.5246751 0.83786011 0 0 255
1.2249944 1.5258368 0.83669567 0 0 255
1.2224854 1.5269985 0.83553129 0 0 255
1.2199765 1.5281601 0.83436692 0 0 255
1.2174675 1.5293218 0.83320248 0 0 255
1.4674964 1.4161381 0.94675171 0 0 255
1.4649875 1.4172997 0.94558728 0 0 255
1.4624785 1.4184614 0.9444229 0 0 255
1.4599696 1.419623 0.94325852 0 0 255
1.4574606 1.4207847 0.94209409 0 0 255
1.4549518 1.4219464 0.94092965 0 0 255
1.4524428 1.4231081 0.93976527 0 0 255
1.4499338 1.4242697 0.9386009 0 0 255
1.4474249 1.4254314 0.93743646 0 0 255
1.444916 1.4265931 0.93627203 0 0 255
1.442407 1.4277546 0.93510765 0 0 255
1.4398981 1.4289163 0.93394327 0 0 255
1.4373891 1.430078 0.93277884 0 0 255
1.4348803 1.4312396 0.9316144 0 0 255
1.4323713 1.4324013 0.93045002 0 0 255
1.4298624 1.433563 0.92928565 0 0 255
1.4273534 1.4347246 0.92812121 0 0 255
1.4248445 1.4358863 0.92695677 0 0 255
1.4223355 1.437048 0.9257924 0 0 255
1.4198266 1.4382095 0.92462802 0 0 255
1.4173177 1.4393712 0.92346358 0 0 255
1.4148088 1.4405329 0.92229915 0 0 255
1.4122999 1.4416945 0.92113477 0 0 255
1.4097909 1.4428562 0.91997039 0 0 255
1.407282 1.4440179 0.91880596 0 0 255
1.404773 1.4451795 0.91764152 0 0 255
1.4022641 1.4463412 0.91647714 0 0 255
1.3997551 1.4475029 0.91531277 0 0 255
1.3972462 1.4486644 0.91414833 0 0 255
1.3947372 1.4498261 0.91298389 0 0 255
1.3922284 1.4509878 0.91181952 0 0 255
1.3897195 1.4521495 0.91065514 0 0 255
1.3872105 1.4533111 0.9094907 0 0 255
1.3847016 1.4544728 0.90832627 0 0 255
1.3821926 1.4556345 0.90716189 0 0 255
1.3796837 1.4567961 0.90599751 0 0 255
1.3771747 1.4579577 0.90483308 0 0 255
1.3746659 1.4591194 0.90366864 0 0 255
1.3721569 1.460281 0.90250427 0 0 255
1.369648 1.4614427 0.90133989 0 0 255
1.367139 1.4626044 0.90017545 0 0 255
1.3646301 1.463766 0.89901102 0 0 255
1.3621211 1.4649277 0.89784664 0 0 255
1.3596122 1.4660894 0.89668226 0 0 255
1.3571033 1.4672509 0.89551783 0 0 255
1.3545943 1.4684126 0.89435339 0 0 255
1.3520855 1.4695743 0.89318901 0 0 255
1.3495765 1.4707359 0.89202464 0 0 255
1.3470676 1.4718976 0.8908602 0 0 255
1.3445586 1.4730593 0.88969576 0 0 255
1.3420497 1.474221 0.88853139 0 0 255
1.3395407 1.4753826 0.88736701 0 0 255
1.3370318 1.4765443 0.88620257 0 0 255
1.3345228 1.477706 0.88503814 0 0 255
1.332014 1.4788675 0.88387376 0 0 255
1.329505 1.4800292 0.88270938 0 0 255
1.3269961 1.4811909 0.88154495 0 0 255
1.3244872 1.4823525 0.88038051 0 0 255
1.3219782 1.4835142 0.87921613 0 0 255
1.3194693 1.4846759 0.87805176 0 0 255
1.3169603 1.4858375 0.87688732 0 0 255
1.3144515 1.4869992 0.87572289 0 0 255
1.3119425 1.4881608 0.87455851 0 0 255
1.3094336 1.4893224 0.87339413 0 0 255
1.3069246 1.4904841 0.8722297 0 0 255
1.3044157 1.4916458 0.87106526 0 0 255
1.3019067 1.4928074 0.86990088 0 0 255
1.2993978 1.4939691 0.86873651 0 0 255
1.2968888 1.4951308 0.86757207 0 0 255
1.2943799 1.4962924 0.86640763 0 0 255
1.2918711 1.497454 0.86524326 0 0 255
1.2893621 1.4986157 0.86407888 0 0 255
1.2868532 1.4997773 0.86291444 0 0 255
1.2843442 1.500939 0.86175001 0 0 255
1.2818353 1.5021007 0.86058563 0 0 255
1.2793263 1.5032624 0.85942125 0 0 255
1.2768174 1.504424 0.85825682 0 0 255
1.2743084 1.5055857 0.85709238 0 0 255
1.2717996 1.5067474 0.855928 0 0 255
1.2692907 1.5079089 0.85476363 0 0 255
1.2667817 1.5090706 0.85359919 0 0 255
1.2642728 1.5102323 0.85243475 0 0 255
1.2617638 1.5113939 0.85127038 0 0 255
1.2592549 1.5125556 0.850106 0 0 255
1.2567459 1.5137173 0.84894156 0 0 255
1.2542371 1.5148789 0.84777713 0 0 255
1.2517281 1.5160406 0.84661275 0 0 255
1.2492192 1.5172023 0.84544837 0 0 255
1.2467102 1.5183638 0.84428394 0 0 255
1.2442013 1.5195255 0.8431195 0 0 255
1.2416923 1.5206872 0.84195513 0 0 255
1.2391834 1.5218488 0.84079075 0 0 255
1.2366745 1.5230105 0.83962631 0 0 255
1.2341655 1.5241722 0.83846188 0 0 255
1.2316566 1.5253339 0.8372975 0 0 255
1.2291477 1.5264955 0.83613306 0 0 255
1.2266388 1.5276572 0.83496869 0 0 255
1.2241298 1.5288188 0.83380425 0 0 255
1.2216208 1.5299804 0.83263987 0 0 255
1.2191119 1.5311421 0.83147544 0 0 255
1.4691408 1.4179584 0.94502473 0 0 255
1.4666318 1.4191201 0.94386029 0 0 255
1.4641229 1.4202818 0.94269586 0 0 255
1.4616139 1.4214433 0.94153148 0 0 255
1.459105 1.422605 0.94036704 0 0 255
1.456596 1.4237667 0.93920267 0 0 255
1.4540871 1.4249284 0.93803823 0 0 255
1.4515781 1.42609 0.93687379 0 0 255
1.4490693 1.4272517 0.93570942 0 0 255
1.4465603 1.4284134 0.93454504 0 0 255
1.4440514 1.429575 0.9333806 0 0 255
1.4415424 1.4307367 0.93221617 0 0 255
1.4390335 1.4318984 0.93105179 0 0 255
1.4365246 1.4330599 0.92988741 0 0 255
1.4340156 1.4342216 0.92872298 0 0 255
1.4315068 1.4353833 0.92755854 0 0 255
1.4289978 1.4365449 0.92639416 0 0 255
1.4264889 1.4377066 0.92522979 0 0 255
1.4239799 1.4388683 0.92406535 0 0 255
1.421471 1.4400299 0.92290092 0 0 255
1.418962 1.4411916 0.92173654 0 0 255
1.4164531 1.4423532 0.92057216 0 0 255
1.4139441 1.4435148 0.91940773 0 0 255
1.4114352 1.4446765 0.91824329 0 0 255
1.4089264 1.4458382 0.91707891 0 0 255
1.4064174 1.4469998 0.91591454 0 0 255
1.4039085 1.4481615 0.9147501 0 0 255
1.4013995 1.4493232 0.91358566 0 0 255
1.3988906 1.4504848 0.91242129 0 0 255
1.3963816 1.4516464 0.91125691 0 0 255
1.3938727 1.4528081 0.91009247 0 0 255
1.3913637 1.4539697 0.90892804 0 0 255
1.3888549 1.4551314 0.90776366 0 0 255
1.3863459 1.4562931 0.90659928 0 0 255
1.383837 1.4574547 0.90543485 0 0 255
1.3813281 1.4586164 0.90427041 0 0 255
1.3788191 1.4597781 0.90310603 0 0 255
1.3763102 1.4609398 0.90194166 0 0 255
1.3738012 1.4621013 0.90077722 0 0 255
1.3712924 1.463263 0.89961278 0 0 255
1.3687834 1.4644247 0.89844841 0 0 255
1.3662745 1.4655863 0.89728403 0 0 255
1.3637655 1.466748 0.89611959 0 0 255
1.3612566 1.4679097 0.89495516 0 0 255
1.3587476 1.4690713 0.89379078 0 0 255
1.3562387 1.470233 0.8926264 0 0 255
1.3537297 1.4713947 0.89146197 0 0 255
1.3512208 1.4725562 0.89029753 0 0 255
1.348712 1.4737179 0.88913316 0 0 255
1.346203 1.4748796 0.88796878 0 0 255
1.3436941 1.4760412 0.88680434 0 0 255
1.3411851 1.4772029 0.88563991 0 0 255
1.3386762 1.4783646 0.88447553 0 0 255
1.3361672 1.4795263 0.88331115 0 0 255
1.3336583 1.4806879 0.88214672 0 0 255
1.3311493 1.4818496 0.88098228 0 0 255
1.3286405 1.4830112 0.8798179 0 0 255
1.3261315 1.4841728 0.87865353 0 0 255
1.3236226 1.4853345 0.87748909 0 0 255
1.3211136 1.4864962 0.87632465 0 0 255
1.3186047 1.4876578 0.87516028 0 0 255
1.3160958 1.4888195 0.8739959 0 0 255
1.3135868 1.4899812 0.87283146 0 0 255
1.311078 1.4911427 0.87166703 0 0 255
1.308569 1.4923044 0.87050265 0 0 255
1.3060601 1.4934661 0.86933827 0 0 255
1.3035511 1.4946277 0.86817384 0 0 255
1.3010422 1.4957894 0.8670094 0 0 255
1.2985332 1.4969511 0.86584502 0 0 255
1.2960243 1.4981127 0.86468065 0 0 255
1.2935153 1.4992744 0.86351621 0 0 255
1.2910064 1.5004361 0.86235178 0 0 255
1.2884974 1.5015976 0.8611874 0 0 255
1.2859886 1.5027593 0.86002302 0 0 255
1.2834797 1.503921 0.85885859 0 0 255
1.2809707 1.5050826 0.85769415 0 0 255
1.2784618 1.5062443 0.85652977 0 0 255
1.2759528 1.507406 0.8553654 0 0 255
1.2734439 1.5085676 0.85420096 0 0 255
1.2709349 1.5097293 0.85303652 0 0 255
1.2684261 1.510891 0.85187215 0 0 255
1.2659171 1.5120527 0.85070777 0 0 255
1.2634082 1.5132142 0.84954333 0 0 255
1.2608993 1.5143759 0.8483789 0 0 255
1.2583903 1.5155376 0.84721452 0 0 255
1.2558814 1.5166992 0.84605014 0 0 255
1.2533724 1.5178609 0.84488571 0 0 255
1.2508636 1.5190226 0.84372127 0 0 255
1.2483546 1.5201842 0.84255689 0 0 255
1.2458457 1.5213459 0.84139252 0 0 255
1.2433367 1.5225075 0.84022808 0 0 255
1.2408278 1.5236691 0.83906364 0 0 255
1.2383188 1.5248308 0.83789927 0 0 255
1.2358099 1.5259925 0.83673489 0 0 255
1.2333009 1.5271541 0.83557045 0 0 255
1.230792 1.5283158 0.83440602 0 0 255
1.228283 1.5294775 0.83324164 0 0 255
1.2257742 1.5306392 0.83207726 0 0 255
1.2232652 1.5318007 0.83091283 0 0 255
1.2207563 1.5329624 0.82974839 0 0 255
1.4707851 1.4197787 0.94329762 0 0 255
1.4682761 1.4209404 0.94213325 0 0 255
1.4657673 1.4221021 0.94096887 0 0 255
1.4632583 1.4232637 0.93980443 0 0 255
1.4607494 1.4244254 0.93864 0 0 255
1.4582404 1.4255871 0.93747562 0 0 255
1.4557315 1.4267486 0.93631124 0 0 255
1.4532225 1.4279103 0.93514681 0 0 255
1.4507136 1.429072 0.93398237 0 0 255
1.4482046 1.4302337 0.932818 0 0 255
1.4456958 1.4313953 0.93165362 0 0 255
1.4431868 1.432557 0.93048918 0 0 255
1.4406779 1.4337187 0.92932475 0 0 255
1.4381689 1.4348803 0.92816037 0 0 255
1.43566 1.436042 0.92699599 0 0 255
1.433151 1.4372036 0.92583156 0 0 255
1.4306421 1.4383652 0.92466712 0 0 255
1.4281331 1.4395269 0.92350274 0 0 255
1.4256243 1.4406886 0.92233837 0 0 255
1.4231154 1.4418502 0.92117393 0 0 255
1.4206064 1.4430119 0.92000949 0 0 255
1.4180975 1.4441736 0.91884512 0 0 255
1.4155885 1.4453351 0.91768074 0 0 255
1.4130796 1.4464968 0.9165163 0 0 255
1.4105706 1.4476585 0.91535187 0 0 255
1.4080617 1.4488201 0.91418749 0 0 255
1.4055527 1.4499818 0.91302311 0 0 255
1.4030439 1.4511435 0.91185868 0 0 255
1.4005349 1.4523051 0.91069424 0 0 255
1.398026 1.4534668 0.90952986 0 0 255
1.3955171 1.4546285 0.90836549 0 0 255
1.3930081 1.45579 0.90720105 0 0 255
1.3904992 1.4569517 0.90603662 0 0 255
1.3879902 1.4581134 0.90487224 0 0 255
1.3854814 1.459275 0.90370786 0 0 255
1.3829724 1.4604367 0.90254343 0 0 255
1.3804635 1.4615984 0.90137899 0 0 255
1.3779545 1.46276 0.90021461 0 0 255
1.3754456 1.4639217 0.89905024 0 0 255
1.3729366 1.4650834 0.8978858 0 0 255
1.3704277 1.4662451 0.89672136 0 0 255
1.3679188 1.4674066 0.89555699 0 0 255
1.3654099 1.4685683 0.89439261 0 0 255
1.362901 1.46973 0.89322817 0 0 255
1.360392 1.4708916 0.89206374 0 0 255
1.3578831 1.4720533 0.89089936 0 0 255
1.3553741 1.473215 0.88973498 0 0 255
1.3528652 1.4743766 0.88857055 0 0 255
1.3503562 1.4755383 0.88740611 0 0 255
1.3478473 1.4766999 0.88624173 0 0 255
1.3453383 1.4778615 0.88507736 0 0 255
1.3428295 1.4790232 0.88391292 0 0 255
1.3403205 1.4801849 0.88274848 0 0 255
1.3378116 1.4813465 0.88158411 0 0 255
1.3353026 1.4825082 0.88041973 0 0 255
1.3327937 1.4836699 0.87925529 0 0 255
1.3302848 1.4848316 0.87809086 0 0 255
1.3277758 1.4859931 0.87692648 0 0 255
1.325267 1.4871548 0.87576205 0 0 255
1.322758 1.4883165 0.87459767 0 0 255
1.3202491 1.4894781 0.87343323 0 0 255
1.3177401 1.4906398 0.87226886 0 0 255
1.3152312 1.4918015 0.87110442 0 0 255
1.3127222 1.4929631 0.86994004 0 0 255
1.3102133 1.4941248 0.86877561 0 0 255
1.3077043 1.4952865 0.86761123 0 0 255
1.3051955 1.496448 0.86644679 0 0 255
1.3026865 1.4976097 0.86528242 0 0 255
1.3001776 1.4987714 0.86411798 0 0 255
1.2976687 1.499933 0.8629536 0 0 255
1.2951597 1.5010947 0.86178917 0 0 255
1.2926508 1.5022564 0.86062479 0 0 255
1.2901418 1.503418 0.85946035 0 0 255
1.2876329 1.5045797 0.85829598 0 0 255
1.2851239 1.5057414 0.8571316 0 0 255
1.2826151 1.5069029 0.85596716 0 0 255
1.2801061 1.5080646 0.85480273 0 0 255
1.2775972 1.5092263 0.85363835 0 0 255
1.2750883 1.5103879 0.85247391 0 0 255
1.2725793 1.5115496 0.85130954 0 0 255
1.2700704 1.5127113 0.8501451 0 0 255
1.2675614 1.5138729 0.84898072 0 0 255
1.2650526 1.5150346 0.84781635 0 0 255
1.2625436 1.5161963 0.84665191 0 0 255
1.2600347 1.5173579 0.84548748 0 0 255
1.2575257 1.5185195 0.8443231 0 0 255
1.2550168 1.5196812 0.84315872 0 0 255
1.2525078 1.5208429 0.84199429 0 0 255
1.2499989 1.5220045 0.84082985 0 0 255
1.2474899 1.5231662 0.83966547 0 0 255
1.2449811 1.5243279 0.8385011 0 0 255
1.2424722 1.5254894 0.83733666 0 0 255
1.2399632 1.5266511 0.83617222 0 0 255
1.2374543 1.5278128 0.83500785 0 0 255
1.2349453 1.5289744 0.83384341 0 0 255
1.2324364 1.5301361 0.83267903 0 0 255
1.2299274 1.5312978 0.8315146 0 0 255
1.2274184 1.5324595 0.83035016 0 0 255
1.2249095 1.5336211 0.82918578 0 0 255
1.2224007 1.5347828 0.82802141 0 0 255
1.4724294 1.421599 0.94157064 0 0 255
1.4699205 1.4227607 0.9404062 0 0 255
1.4674115 1.4239223 0.93924183 0 0 255
1.4649026 1.425084 0.93807745 0 0 255
1.4623936 1.4262457 0.93691301 0 0 255
1.4598848 1.4274074 0.93574858 0 0 255
1.4573758 1.428569 0.93458414 0 0 255
