ply
format ascii 1.0
comment PCL generated
element vertex 1223
property float x
property float y
property float z
property uchar red
property uchar green
property uchar blue
element camera 0
property float view_px
property float view_py
property float view_pz
property float x_axisx
property float x_axisy
property float x_axisz
property float y_axisx
property float y_axisy
property float y_axisz
property float z_axisx
property float z_axisy
property float z_axisz
property float focal
property float scalex
property float scaley
property float centerx
property float centery
property int viewportx
property int viewporty
property float k1
property float k2
end_header
1.367187 1.5236728 0.54109651 255 0 0
1.3653609 1.5245057 0.53886688 255 0 0
1.3635347 1.5253386 0.53663719 255 0 0
1.3617085 1.5261717 0.53440756 255 0 0
1.3598824 1.5270046 0.53217793 255 0 0
1.3580562 1.5278375 0.52994823 255 0 0
1.35623 1.5286704 0.5277186 255 0 0
1.354404 1.5295035 0.52548891 255 0 0
1.3525778 1.5303364 0.52325928 255 0 0
1.3507516 1.5311693 0.52102959 255 0 0
1.3489255 1.5320022 0.51879996 255 0 0
1.3470993 1.5328352 0.51657033 255 0 0
1.3452731 1.5336682 0.51434064 255 0 0
1.343447 1.5345011 0.51211101 255 0 0
1.3416208 1.535334 0.50988132 255 0 0
1.3397946 1.536167 0.50765169 255 0 0
1.3379685 1.5369999 0.505422 255 0 0
1.3361423 1.5378329 0.50319237 255 0 0
1.3343163 1.5386659 0.50096273 255 0 0
1.3324901 1.5394988 0.49873304 255 0 0
1.3306639 1.5403317 0.49650341 255 0 0
1.3288378 1.5411646 0.49427375 255 0 0
1.3270116 1.5419977 0.49204409 255 0 0
1.3251854 1.5428306 0.48981443 255 0 0
1.3233593 1.5436635 0.48758477 255 0 0
1.3215331 1.5444964 0.48535514 255 0 0
1.3197069 1.5453295 0.48312548 255 0 0
1.3178807 1.5461624 0.48089582 255 0 0
1.3160546 1.5469953 0.47866616 255 0 0
1.3142285 1.5478282 0.4764365 255 0 0
1.3124024 1.5486612 0.47420684 255 0 0
1.3105762 1.5494941 0.47197717 255 0 0
1.30875 1.5503271 0.46974754 255 0 0
1.3069239 1.55116 0.46751788 255 0 0
1.3050977 1.551993 0.46528822 255 0 0
1.3032715 1.5528259 0.46305856 255 0 0
1.3014454 1.5536588 0.4608289 255 0 0
1.2996192 1.5544918 0.45859924 255 0 0
1.297793 1.5553248 0.45636958 255 0 0
1.2959669 1.5561577 0.45413995 255 0 0
1.2941408 1.5569906 0.45191029 255 0 0
1.2923146 1.5578237 0.44968063 255 0 0
1.2904885 1.5586566 0.44745097 255 0 0
1.2886623 1.5594895 0.4452213 255 0 0
1.2868361 1.5603224 0.44299164 255 0 0
1.456569 1.4856395 0.6514703 255 0 0
1.4547428 1.4864724 0.64924067 255 0 0
1.4529166 1.4873054 0.64701104 255 0 0
1.4510905 1.4881383 0.64478135 255 0 0
1.4492643 1.4889712 0.64255166 255 0 0
1.4474382 1.4898041 0.64032203 255 0 0
1.4456121 1.4906372 0.6380924 255 0 0
1.4437859 1.4914701 0.63586271 255 0 0
1.4419597 1.492303 0.63363308 255 0 0
1.4401336 1.4931359 0.63140339 255 0 0
1.4383074 1.493969 0.62917376 255 0 0
1.4364812 1.4948019 0.62694407 255 0 0
1.4346551 1.4956348 0.62471443 255 0 0
1.4328289 1.4964678 0.6224848 255 0 0
1.4310027 1.4973007 0.62025511 255 0 0
1.4291767 1.4981337 0.61802548 255 0 0
1.4273505 1.4989666 0.61579579 255 0 0
1.4255244 1.4997996 0.61356616 255 0 0
1.4236982 1.5006325 0.61133647 255 0 0
1.421872 1.5014654 0.60910684 255 0 0
1.4200459 1.5022984 0.60687721 255 0 0
1.4182197 1.5031314 0.60464752 255 0 0
1.4163935 1.5039643 0.60241789 255 0 0
1.4145674 1.5047972 0.60018826 255 0 0
1.4127412 1.5056301 0.59795856 255 0 0
1.4109151 1.5064632 0.59572887 255 0 0
1.409089 1.5072961 0.59349924 255 0 0
1.4072628 1.508129 0.59126961 255 0 0
1.4054366 1.5089619 0.58903992 255 0 0
1.4036105 1.509795 0.58681029 255 0 0
1.4017843 1.5106279 0.58458066 255 0 0
1.3999581 1.5114608 0.58235097 255 0 0
1.398132 1.5122937 0.58012128 255 0 0
1.3963058 1.5131267 0.57789165 255 0 0
1.3944796 1.5139596 0.57566202 255 0 0
1.3926535 1.5147926 0.57343233 255 0 0
1.3908274 1.5156256 0.5712027 255 0 0
1.3890013 1.5164585 0.56897306 255 0 0
1.3871751 1.5172914 0.56674337 255 0 0
1.3853489 1.5181243 0.56451368 255 0 0
1.3835227 1.5189574 0.56228405 255 0 0
1.3816966 1.5197903 0.56005442 255 0 0
1.3798704 1.5206232 0.55782473 255 0 0
1.3780442 1.5214561 0.5555951 255 0 0
1.3762181 1.5222892 0.55336541 255 0 0
1.3743919 1.5231221 0.55113578 255 0 0
1.3725657 1.523955 0.54890609 255 0 0
1.3707396 1.5247879 0.54667646 255 0 0
1.3689134 1.5256209 0.54444683 255 0 0
1.3670874 1.5264539 0.54221714 255 0 0
1.3652612 1.5272868 0.5399875 255 0 0
1.363435 1.5281198 0.53775781 255 0 0
1.3616089 1.5289527 0.53552818 255 0 0
1.3597827 1.5297856 0.53329849 255 0 0
1.3579565 1.5306185 0.53106886 255 0 0
1.3561304 1.5314516 0.52883917 255 0 0
1.3543042 1.5322845 0.52660954 255 0 0
1.352478 1.5331174 0.52437985 255 0 0
1.3506519 1.5339503 0.52215022 255 0 0
1.3488257 1.5347834 0.51992059 255 0 0
1.3469996 1.5356163 0.5176909 255 0 0
1.3451734 1.5364492 0.51546127 255 0 0
1.3433473 1.5372821 0.51323158 255 0 0
1.3415211 1.5381151 0.51100194 255 0 0
1.339695 1.5389481 0.50877231 255 0 0
1.3378688 1.539781 0.50654262 255 0 0
1.3360426 1.5406139 0.50431299 255 0 0
1.3342165 1.5414469 0.5020833 255 0 0
1.3323903 1.5422798 0.49985367 255 0 0
1.3305641 1.5431128 0.49762401 255 0 0
1.328738 1.5439458 0.49539435 255 0 0
1.3269119 1.5447787 0.49316469 255 0 0
1.3250856 1.5456116 0.49093503 255 0 0
1.3232596 1.5464445 0.4887054 255 0 0
1.3214334 1.5472776 0.48647574 255 0 0
1.3196073 1.5481105 0.48424608 255 0 0
1.3177811 1.5489434 0.48201641 255 0 0
1.3159549 1.5497763 0.47978675 255 0 0
1.3141288 1.5506094 0.47755709 255 0 0
1.3123026 1.5514423 0.47532746 255 0 0
1.3104764 1.5522752 0.4730978 255 0 0
1.3086503 1.5531081 0.47086814 255 0 0
1.3068242 1.5539411 0.46863848 255 0 0
1.3049979 1.554774 0.46640882 255 0 0
1.3031719 1.555607 0.46417916 255 0 0
1.3013457 1.5564399 0.46194953 255 0 0
1.2995195 1.5572729 0.45971987 255 0 0
1.2976934 1.5581058 0.45749021 255 0 0
1.2958672 1.5589387 0.45526055 255 0 0
1.294041 1.5597718 0.45303088 255 0 0
1.2922149 1.5606047 0.45080122 255 0 0
1.2903887 1.5614376 0.44857156 255 0 0
1.2885625 1.5622705 0.4463419 255 0 0
1.2867364 1.5631036 0.44411224 255 0 0
1.4564693 1.4884205 0.65259093 255 0 0
1.4546431 1.4892535 0.6503613 255 0 0
1.452817 1.4900864 0.64813161 255 0 0
1.4509908 1.4909194 0.64590192 255 0 0
1.4491646 1.4917523 0.64367229 255 0 0
1.4473385 1.4925853 0.64144266 255 0 0
1.4455123 1.4934182 0.63921297 255 0 0
1.4436861 1.4942511 0.63698334 255 0 0
1.44186 1.495084 0.63475364 255 0 0
1.4400339 1.4959171 0.63252401 255 0 0
1.4382077 1.49675 0.63029432 255 0 0
1.4363816 1.4975829 0.62806469 255 0 0
1.4345554 1.4984159 0.62583506 255 0 0
1.4327292 1.4992489 0.62360537 255 0 0
1.4309031 1.5000818 0.62137574 255 0 0
1.4290769 1.5009147 0.61914605 255 0 0
1.4272507 1.5017477 0.61691642 255 0 0
1.4254246 1.5025806 0.61468673 255 0 0
1.4235984 1.5034136 0.6124571 255 0 0
1.4217722 1.5042465 0.61022747 255 0 0
1.4199462 1.5050795 0.60799778 255 0 0
1.41812 1.5059124 0.60576814 255 0 0
1.4162939 1.5067453 0.60353845 255 0 0
1.4144677 1.5075783 0.60130882 255 0 0
1.4126415 1.5084113 0.59907913 255 0 0
1.4108154 1.5092442 0.5968495 255 0 0
1.4089892 1.5100771 0.59461987 255 0 0
1.407163 1.51091 0.59239018 255 0 0
1.4053369 1.5117431 0.59016055 255 0 0
1.4035107 1.512576 0.58793092 255 0 0
1.4016845 1.5134089 0.58570123 255 0 0
1.3998585 1.5142418 0.58347154 255 0 0
1.3980323 1.5150748 0.58124191 255 0 0
1.3962061 1.5159078 0.57901227 255 0 0
1.39438 1.5167407 0.57678258 255 0 0
1.3925538 1.5175736 0.57455295 255 0 0
1.3907276 1.5184066 0.57232332 255 0 0
1.3889015 1.5192395 0.57009363 255 0 0
1.3870753 1.5200725 0.56786394 255 0 0
1.3852491 1.5209055 0.56563431 255 0 0
1.383423 1.5217384 0.56340468 255 0 0
1.3815968 1.5225713 0.56117499 255 0 0
1.3797708 1.5234042 0.55894536 255 0 0
1.3779446 1.5242373 0.55671573 255 0 0
1.3761184 1.5250702 0.55448604 255 0 0
1.3742923 1.5259031 0.55225635 255 0 0
1.3724661 1.526736 0.55002671 255 0 0
1.3706399 1.5275691 0.54779708 255 0 0
1.3688138 1.528402 0.54556739 255 0 0
1.3669876 1.5292349 0.54333776 255 0 0
1.3651614 1.5300679 0.54110807 255 0 0
1.3633353 1.5309008 0.53887844 255 0 0
1.3615091 1.5317338 0.53664875 255 0 0
1.359683 1.5325667 0.53441912 255 0 0
1.3578568 1.5333997 0.53218949 255 0 0
1.3560307 1.5342326 0.5299598 255 0 0
1.3542045 1.5350655 0.52773017 255 0 0
1.3523784 1.5358984 0.52550048 255 0 0
1.3505522 1.5367315 0.52327085 255 0 0
1.348726 1.5375644 0.52104115 255 0 0
1.3468999 1.5383973 0.51881152 255 0 0
1.3450737 1.5392302 0.51658189 255 0 0
1.3432475 1.5400633 0.5143522 255 0 0
1.3414214 1.5408962 0.51212257 255 0 0
1.3395952 1.5417291 0.50989288 255 0 0
1.337769 1.542562 0.50766325 255 0 0
1.335943 1.543395 0.50543356 255 0 0
1.3341168 1.544228 0.50320393 255 0 0
1.3322906 1.5450609 0.5009743 255 0 0
1.3304645 1.5458939 0.49874461 255 0 0
1.3286383 1.5467268 0.49651498 255 0 0
1.3268121 1.5475597 0.49428532 255 0 0
1.324986 1.5483927 0.49205565 255 0 0
1.3231598 1.5492257 0.48982599 255 0 0
1.3213336 1.5500586 0.48759633 255 0 0
1.3195076 1.5508915 0.48536667 255 0 0
1.3176813 1.5517244 0.48313701 255 0 0
1.3158553 1.5525575 0.48090738 255 0 0
1.3140291 1.5533904 0.47867772 255 0 0
1.3122029 1.5542233 0.47644806 255 0 0
1.3103768 1.5550562 0.4742184 255 0 0
1.3085506 1.5558892 0.47198874 255 0 0
1.3067244 1.5567222 0.46975908 255 0 0
1.3048983 1.5575551 0.46752942 255 0 0
1.3030721 1.558388 0.46529979 255 0 0
1.3012459 1.559221 0.46307012 255 0 0
1.2994199 1.5600539 0.46084046 255 0 0
1.2975936 1.5608869 0.4586108 255 0 0
1.2957675 1.5617199 0.45638114 255 0 0
1.2939414 1.5625528 0.45415151 255 0 0
1.2921152 1.5633857 0.45192182 255 0 0
1.290289 1.5642186 0.44969216 255 0 0
1.2884629 1.5650517 0.4474625 255 0 0
1.2866367 1.5658846 0.44523284 255 0 0
1.4563695 1.4912015 0.65371156 255 0 0
1.4545434 1.4920346 0.65148187 255 0 0
1.4527173 1.4928675 0.64925224 255 0 0
1.4508911 1.4937004 0.64702255 255 0 0
1.449065 1.4945334 0.64479291 255 0 0
1.4472388 1.4953663 0.64256322 255 0 0
1.4454126 1.4961993 0.64033359 255 0 0
1.4435865 1.4970322 0.63810396 255 0 0
1.4417603 1.4978652 0.63587427 255 0 0
1.4399341 1.4986981 0.63364458 255 0 0
1.438108 1.499531 0.63141495 255 0 0
1.4362818 1.5003639 0.62918532 255 0 0
1.4344556 1.501197 0.62695563 255 0 0
1.4326295 1.5020299 0.624726 255 0 0
1.4308034 1.5028628 0.62249637 255 0 0
1.4289773 1.5036957 0.62026668 255 0 0
1.4271511 1.5045288 0.61803699 255 0 0
1.4253249 1.5053617 0.61580735 255 0 0
1.4234987 1.5061946 0.61357772 255 0 0
1.4216726 1.5070276 0.61134803 255 0 0
1.4198464 1.5078605 0.6091184 255 0 0
1.4180202 1.5086935 0.60688877 255 0 0
1.4161941 1.5095264 0.60465908 255 0 0
1.4143679 1.5103594 0.60242945 255 0 0
1.4125419 1.5111923 0.60019976 255 0 0
1.4107157 1.5120252 0.59797013 255 0 0
1.4088895 1.5128582 0.59574044 255 0 0
1.4070634 1.5136912 0.59351081 255 0 0
1.4052372 1.5145241 0.59128118 255 0 0
1.403411 1.515357 0.58905149 255 0 0
1.4015849 1.5161899 0.58682185 255 0 0
1.3997587 1.517023 0.58459216 255 0 0
1.3979325 1.5178559 0.58236253 255 0 0
1.3961064 1.5186888 0.58013284 255 0 0
1.3942802 1.5195217 0.57790321 255 0 0
1.3924541 1.5203547 0.57567358 255 0 0
1.390628 1.5211877 0.57344389 255 0 0
1.3888018 1.5220206 0.57121426 255 0 0
1.3869756 1.5228536 0.56898457 255 0 0
1.3851495 1.5236865 0.56675494 255 0 0
1.3833233 1.5245194 0.56452525 255 0 0
1.3814971 1.5253524 0.56229562 255 0 0
1.379671 1.5261854 0.56006598 255 0 0
1.3778448 1.5270183 0.55783629 255 0 0
1.3760186 1.5278512 0.55560666 255 0 0
1.3741925 1.5286841 0.55337697 255 0 0
1.3723663 1.5295172 0.55114734 255 0 0
1.3705401 1.5303501 0.54891765 255 0 0
1.3687141 1.531183 0.54668802 255 0 0
1.3668879 1.532016 0.54445833 255 0 0
1.3650618 1.532849 0.5422287 255 0 0
1.3632356 1.5336819 0.53999901 255 0 0
1.3614094 1.5345148 0.53776938 255 0 0
1.3595833 1.5353478 0.53553975 255 0 0
1.3577571 1.5361807 0.53331006 255 0 0
1.3559309 1.5370136 0.53108042 255 0 0
1.3541048 1.5378466 0.52885073 255 0 0
1.3522786 1.5386796 0.5266211 255 0 0
1.3504524 1.5395125 0.52439141 255 0 0
1.3486264 1.5403454 0.52216178 255 0 0
1.3468002 1.5411783 0.51993215 255 0 0
1.344974 1.5420114 0.51770246 255 0 0
1.3431479 1.5428443 0.51547283 255 0 0
1.3413217 1.5436772 0.51324314 255 0 0
1.3394955 1.5445101 0.51101351 255 0 0
1.3376694 1.5453432 0.50878382 255 0 0
1.3358432 1.5461761 0.50655419 255 0 0
1.334017 1.547009 0.50432456 255 0 0
1.3321909 1.547842 0.50209486 255 0 0
1.3303647 1.5486749 0.49986523 255 0 0
1.3285387 1.5495079 0.49763557 255 0 0
1.3267125 1.5503408 0.49540591 255 0 0
1.3248863 1.5511738 0.49317625 255 0 0
1.3230602 1.5520067 0.49094659 255 0 0
1.321234 1.5528396 0.48871696 255 0 0
1.3194078 1.5536726 0.4864873 255 0 0
1.3175817 1.5545056 0.48425764 255 0 0
1.3157555 1.5553385 0.48202798 255 0 0
1.3139293 1.5561714 0.47979832 255 0 0
1.3121032 1.5570043 0.47756866 255 0 0
1.310277 1.5578374 0.475339 255 0 0
1.3084509 1.5586703 0.47310936 255 0 0
1.3066248 1.5595032 0.4708797 255 0 0
1.3047986 1.5603361 0.46865004 255 0 0
1.3029724 1.5611691 0.46642038 255 0 0
1.3011463 1.5620021 0.46419072 255 0 0
1.2993201 1.562835 0.46196106 255 0 0
1.2974939 1.563668 0.45973143 255 0 0
1.2956678 1.5645009 0.45750177 255 0 0
1.2938416 1.5653338 0.45527211 255 0 0
1.2920154 1.5661668 0.45304245 255 0 0
1.2901893 1.5669998 0.45081279 255 0 0
1.2883631 1.5678327 0.44858313 255 0 0
1.2865369 1.5686656 0.44635347 255 0 0
1.4562699 1.4939827 0.65483212 255 0 0
1.4544437 1.4948156 0.65260249 255 0 0
1.4526175 1.4956485 0.65037286 255 0 0
1.4507914 1.4964815 0.64814317 255 0 0
1.4489652 1.4973145 0.64591348 255 0 0
1.447139 1.4981474 0.64368385 255 0 0
1.4453129 1.4989803 0.64145422 255 0 0
1.4434867 1.4998133 0.63922453 255 0 0
1.4416606 1.5006462 0.6369949 255 0 0
1.4398345 1.5014791 0.63476521 255 0 0
1.4380083 1.5023121 0.63253558 255 0 0
1.4361821 1.5031451 0.63030589 255 0 0
1.434356 1.503978 0.62807626 255 0 0
1.4325298 1.5048109 0.62584662 255 0 0
1.4307036 1.5056438 0.62361693 255 0 0
1.4288775 1.5064769 0.6213873 255 0 0
1.4270513 1.5073098 0.61915761 255 0 0
1.4252251 1.5081427 0.61692798 255 0 0
1.423399 1.5089757 0.61469829 255 0 0
1.4215729 1.5098087 0.61246866 255 0 0
1.4197468 1.5106416 0.61023903 255 0 0
1.4179206 1.5114745 0.60800934 255 0 0
1.4160944 1.5123075 0.60577971 255 0 0
1.4142683 1.5131404 0.60355008 255 0 0
1.4124421 1.5139734 0.60132039 255 0 0
1.4106159 1.5148063 0.5990907 255 0 0
1.4087898 1.5156393 0.59686106 255 0 0
1.4069636 1.5164722 0.59463143 255 0 0
1.4051374 1.5173051 0.59240174 255 0 0
1.4033114 1.5181381 0.59017211 255 0 0
1.4014852 1.5189711 0.58794248 255 0 0
1.399659 1.519804 0.58571279 255 0 0
1.3978329 1.5206369 0.5834831 255 0 0
1.3960067 1.5214698 0.58125347 255 0 0
1.3941805 1.5223029 0.57902384 255 0 0
1.3923544 1.5231358 0.57679415 255 0 0
1.3905282 1.5239687 0.57456452 255 0 0
1.388702 1.5248017 0.57233489 255 0 0
1.3868759 1.5256346 0.5701052 255 0 0
1.3850497 1.5264676 0.5678755 255 0 0
1.3832235 1.5273005 0.56564587 255 0 0
1.3813975 1.5281335 0.56341624 255 0 0
1.3795713 1.5289664 0.56118655 255 0 0
1.3777452 1.5297993 0.55895692 255 0 0
1.375919 1.5306323 0.55672723 255 0 0
1.3740928 1.5314653 0.5544976 255 0 0
1.3722667 1.5322982 0.55226791 255 0 0
1.3704405 1.5331311 0.55003828 255 0 0
1.3686143 1.533964 0.54780865 255 0 0
1.3667881 1.5347971 0.54557896 255 0 0
1.364962 1.53563 0.54334933 255 0 0
1.3631358 1.5364629 0.54111964 255 0 0
1.3613098 1.5372958 0.53889 255 0 0
1.3594836 1.5381289 0.53666031 255 0 0
1.3576574 1.5389618 0.53443068 255 0 0
1.3558313 1.5397947 0.53220105 255 0 0
1.3540051 1.5406277 0.52997136 255 0 0
1.3521789 1.5414606 0.52774173 255 0 0
1.3503528 1.5422935 0.52551204 255 0 0
1.3485266 1.5431265 0.52328241 255 0 0
1.3467004 1.5439595 0.52105272 255 0 0
1.3448743 1.5447924 0.51882309 255 0 0
1.3430481 1.5456253 0.51659346 255 0 0
1.341222 1.5464582 0.51436377 255 0 0
1.3393958 1.5472913 0.51213413 255 0 0
1.3375697 1.5481242 0.50990444 255 0 0
1.3357435 1.5489571 0.50767481 255 0 0
1.3339174 1.54979 0.50544512 255 0 0
1.3320912 1.5506231 0.50321549 255 0 0
1.330265 1.551456 0.50098586 255 0 0
1.3284389 1.5522889 0.49875617 255 0 0
1.3266127 1.5531219 0.49652651 255 0 0
1.3247865 1.5539548 0.49429685 255 0 0
1.3229604 1.5547878 0.49206722 255 0 0
1.3211343 1.5556207 0.48983756 255 0 0
1.3193082 1.5564537 0.4876079 255 0 0
1.317482 1.5572866 0.48537824 255 0 0
1.3156558 1.5581195 0.48314857 255 0 0
1.3138297 1.5589525 0.48091894 255 0 0
1.3120035 1.5597855 0.47868928 255 0 0
1.3101773 1.5606184 0.47645962 255 0 0
1.3083512 1.5614513 0.47422996 255 0 0
1.306525 1.5622842 0.4720003 255 0 0
1.3046988 1.5631173 0.46977064 255 0 0
1.3028727 1.5639502 0.46754098 255 0 0
1.3010466 1.5647831 0.46531135 255 0 0
1.2992204 1.565616 0.46308169 255 0 0
1.2973943 1.566449 0.46085203 255 0 0
1.2955681 1.567282 0.45862237 255 0 0
1.2937419 1.5681149 0.45639271 255 0 0
1.2919158 1.5689478 0.45416304 255 0 0
1.2900896 1.5697808 0.45193338 255 0 0
1.2882634 1.5706137 0.44970372 255 0 0
1.2864373 1.5714467 0.44747406 255 0 0
1.4561702 1.4967637 0.65595275 255 0 0
1.454344 1.4975966 0.65372312 255 0 0
1.4525179 1.4984297 0.65149343 255 0 0
1.4506917 1.4992626 0.64926374 255 0 0
1.4488655 1.5000955 0.64703411 255 0 0
1.4470394 1.5009284 0.64480448 255 0 0
1.4452132 1.5017614 0.64257479 255 0 0
1.443387 1.5025944 0.64034516 255 0 0
1.4415609 1.5034273 0.63811547 255 0 0
1.4397347 1.5042602 0.63588583 255 0 0
1.4379085 1.5050932 0.63365614 255 0 0
1.4360824 1.5059261 0.63142651 255 0 0
1.4342563 1.506759 0.62919688 255 0 0
1.4324301 1.507592 0.62696719 255 0 0
1.430604 1.508425 0.62473756 255 0 0
1.4287778 1.5092579 0.62250787 255 0 0
1.4269516 1.5100908 0.62027824 255 0 0
1.4251255 1.5109239 0.61804855 255 0 0
1.4232993 1.5117568 0.61581892 255 0 0
1.4214731 1.5125897 0.61358929 255 0 0
1.419647 1.5134226 0.6113596 255 0 0
1.4178208 1.5142556 0.60912997 255 0 0
1.4159946 1.5150886 0.60690027 255 0 0
1.4141686 1.5159215 0.60467064 255 0 0
1.4123424 1.5167544 0.60244095 255 0 0
1.4105163 1.5175874 0.60021132 255 0 0
1.4086901 1.5184203 0.59798169 255 0 0
1.4068639 1.5192533 0.595752 255 0 0
1.4050378 1.5200862 0.59352237 255 0 0
1.4032116 1.5209192 0.59129274 255 0 0
1.4013854 1.5217521 0.58906305 255 0 0
1.3995593 1.522585 0.58683336 255 0 0
1.3977331 1.5234179 0.58460373 255 0 0
1.3959069 1.524251 0.5823741 255 0 0
1.3940809 1.5250839 0.58014441 255 0 0
1.3922547 1.5259168 0.57791477 255 0 0
1.3904285 1.5267498 0.57568514 255 0 0
1.3886024 1.5275828 0.57345545 255 0 0
1.3867762 1.5284157 0.57122576 255 0 0
1.38495 1.5292486 0.56899613 255 0 0
1.3831239 1.5300816 0.5667665 255 0 0
1.3812977 1.5309145 0.56453681 255 0 0
1.3794715 1.5317475 0.56230718 255 0 0
1.3776454 1.5325804 0.56007755 255 0 0
1.3758192 1.5334134 0.55784786 255 0 0
1.3739932 1.5342463 0.55561817 255 0 0
1.372167 1.5350792 0.55338854 255 0 0
1.3703408 1.5359122 0.55115891 255 0 0
1.3685147 1.5367452 0.54892921 255 0 0
1.3666885 1.5375781 0.54669958 255 0 0
1.3648623 1.538411 0.54446989 255 0 0
1.3630362 1.5392439 0.54224026 255 0 0
1.36121 1.540077 0.54001057 255 0 0
1.3593838 1.5409099 0.53778094 255 0 0
1.3575577 1.5417428 0.53555131 255 0 0
1.3557315 1.5425758 0.53332162 255 0 0
1.3539053 1.5434088 0.53109199 255 0 0
1.3520792 1.5442417 0.5288623 255 0 0
1.3502531 1.5450746 0.52663267 255 0 0
1.3484269 1.5459076 0.52440298 255 0 0
1.3466008 1.5467405 0.52217335 255 0 0
1.3447746 1.5475734 0.51994371 255 0 0
1.3429484 1.5484064 0.51771402 255 0 0
1.3411223 1.5492394 0.51548439 255 0 0
1.3392961 1.5500723 0.5132547 255 0 0
1.3374699 1.5509052 0.51102507 255 0 0
1.3356438 1.5517381 0.50879538 255 0 0
1.3338176 1.5525712 0.50656575 255 0 0
1.3319914 1.5534041 0.50433612 255 0 0
1.3301654 1.554237 0.50210643 255 0 0
1.3283392 1.5550699 0.4998768 255 0 0
1.3265131 1.555903 0.49764714 255 0 0
1.3246869 1.5567359 0.49541748 255 0 0
1.3228607 1.5575688 0.49318781 255 0 0
1.3210346 1.5584018 0.49095815 255 0 0
1.3192084 1.5592347 0.48872849 255 0 0
1.3173822 1.5600677 0.48649883 255 0 0
1.315556 1.5609006 0.4842692 255 0 0
1.3137299 1.5617336 0.48203954 255 0 0
1.3119037 1.5625665 0.47980988 255 0 0
1.3100777 1.5633994 0.47758022 255 0 0
1.3082515 1.5642323 0.47535056 255 0 0
1.3064253 1.5650654 0.4731209 255 0 0
1.3045992 1.5658983 0.47089127 255 0 0
1.302773 1.5667312 0.46866161 255 0 0
1.3009468 1.5675641 0.46643195 255 0 0
1.2991207 1.5683972 0.46420228 255 0 0
1.2972945 1.5692301 0.46197262 255 0 0
1.2954683 1.570063 0.45974296 255 0 0
1.2936422 1.5708959 0.45751333 255 0 0
1.291816 1.5717289 0.45528364 255 0 0
1.2899899 1.5725619 0.45305401 255 0 0
1.2881637 1.5733948 0.45082432 255 0 0
1.2863376 1.5742278 0.44859466 255 0 0
1.4560704 1.4995447 0.65707338 255 0 0
1.4542443 1.5003778 0.65484369 255 0 0
1.4524181 1.5012107 0.65261406 255 0 0
1.4505919 1.5020436 0.65038437 255 0 0
1.4487658 1.5028765 0.64815474 255 0 0
1.4469396 1.5037096 0.64592505 255 0 0
1.4451134 1.5045425 0.64369541 255 0 0
1.4432874 1.5053754 0.64146578 255 0 0
1.4414612 1.5062083 0.63923609 255 0 0
1.439635 1.5070413 0.6370064 255 0 0
1.4378089 1.5078743 0.63477677 255 0 0
1.4359827 1.5087072 0.63254714 255 0 0
1.4341565 1.5095401 0.63031745 255 0 0
1.4323304 1.5103731 0.62808782 255 0 0
1.4305042 1.511206 0.62585819 255 0 0
1.428678 1.5120389 0.6236285 255 0 0
1.4268519 1.5128719 0.62139881 255 0 0
1.4250258 1.5137049 0.61916918 255 0 0
1.4231997 1.5145378 0.61693954 255 0 0
1.4213735 1.5153707 0.61470985 255 0 0
1.4195473 1.5162038 0.61248022 255 0 0
1.4177212 1.5170367 0.61025059 255 0 0
1.415895 1.5178696 0.6080209 255 0 0
1.4140688 1.5187025 0.60579127 255 0 0
1.4122427 1.5195355 0.60356158 255 0 0
1.4104165 1.5203685 0.60133195 255 0 0
1.4085903 1.5212014 0.59910226 255 0 0
1.4067643 1.5220343 0.59687263 255 0 0
1.4049381 1.5228673 0.594643 255 0 0
1.4031119 1.5237002 0.59241331 255 0 0
1.4012858 1.5245332 0.59018368 255 0 0
1.3994596 1.5253661 0.58795398 255 0 0
1.3976334 1.5261991 0.58572435 255 0 0
1.3958073 1.527032 0.58349466 255 0 0
1.3939811 1.5278649 0.58126503 255 0 0
1.3921549 1.5286978 0.5790354 255 0 0
1.3903288 1.5295309 0.57680571 255 0 0
1.3885026 1.5303638 0.57457608 255 0 0
1.3866764 1.5311967 0.57234639 255 0 0
1.3848504 1.5320297 0.57011676 255 0 0
1.3830242 1.5328627 0.56788707 255 0 0
1.381198 1.5336956 0.56565744 255 0 0
1.3793719 1.5345285 0.56342781 255 0 0
1.3775457 1.5353615 0.56119812 255 0 0
1.3757195 1.5361944 0.55896848 255 0 0
1.3738934 1.5370274 0.55673879 255 0 0
1.3720672 1.5378603 0.55450916 255 0 0
1.370241 1.5386933 0.55227947 255 0 0
1.3684149 1.5395262 0.55004984 255 0 0
1.3665887 1.5403591 0.54782015 255 0 0
1.3647625 1.5411921 0.54559052 255 0 0
1.3629365 1.5420251 0.54336083 255 0 0
1.3611103 1.542858 0.5411312 255 0 0
1.3592842 1.5436909 0.53890157 255 0 0
1.357458 1.544524 0.53667188 255 0 0
1.3556318 1.5453569 0.53444225 255 0 0
1.3538057 1.5461898 0.53221256 255 0 0
1.3519795 1.5470227 0.52998292 255 0 0
1.3501533 1.5478557 0.52775323 255 0 0
1.3483272 1.5486887 0.5255236 255 0 0
1.346501 1.5495216 0.52329397 255 0 0
1.3446748 1.5503545 0.52106428 255 0 0
1.3428488 1.5511875 0.51883465 255 0 0
1.3410226 1.5520204 0.51660496 255 0 0
1.3391964 1.5528533 0.51437533 255 0 0
1.3373703 1.5536863 0.51214564 255 0 0
1.3355441 1.5545193 0.50991601 255 0 0
1.3337179 1.5553522 0.50768638 255 0 0
1.3318918 1.5561851 0.50545669 255 0 0
1.3300656 1.557018 0.50322706 255 0 0
1.3282394 1.5578511 0.50099736 255 0 0
1.3264133 1.558684 0.49876773 255 0 0
1.3245871 1.5595169 0.49653807 255 0 0
1.3227611 1.5603499 0.49430841 255 0 0
1.3209349 1.5611829 0.49207878 255 0 0
1.3191087 1.5620158 0.48984912 255 0 0
1.3172826 1.5628487 0.48761946 255 0 0
1.3154564 1.5636817 0.4853898 255 0 0
1.3136302 1.5645146 0.48316014 255 0 0
1.3118041 1.5653476 0.48093048 255 0 0
1.3099779 1.5661805 0.47870082 255 0 0
1.3081517 1.5670135 0.47647119 255 0 0
1.3063256 1.5678464 0.47424152 255 0 0
1.3044994 1.5686793 0.47201186 255 0 0
1.3026733 1.5695122 0.4697822 255 0 0
1.3008472 1.5703453 0.46755254 255 0 0
1.299021 1.5711782 0.46532288 255 0 0
1.2971948 1.5720111 0.46309325 255 0 0
1.2953687 1.572844 0.46086359 255 0 0
1.2935425 1.5736771 0.45863393 255 0 0
1.2917163 1.57451 0.45640427 255 0 0
1.2898902 1.5753429 0.45417461 255 0 0
1.288064 1.5761759 0.45194495 255 0 0
1.2862378 1.5770088 0.44971529 255 0 0
1.4559708 1.5023258 0.65819395 255 0 0
1.4541446 1.5031588 0.65596431 255 0 0
1.4523184 1.5039917 0.65373468 255 0 0
1.4504923 1.5048246 0.65150499 255 0 0
1.4486661 1.5056577 0.6492753 255 0 0
1.4468399 1.5064906 0.64704567 255 0 0
1.4450138 1.5073235 0.64481604 255 0 0
1.4431876 1.5081564 0.64258635 255 0 0
1.4413614 1.5089895 0.64035672 255 0 0
1.4395353 1.5098224 0.63812703 255 0 0
1.4377091 1.5106553 0.6358974 255 0 0
1.435883 1.5114882 0.63366771 255 0 0
1.4340569 1.5123212 0.63143808 255 0 0
1.4322307 1.5131541 0.62920845 255 0 0
1.4304045 1.5139871 0.62697875 255 0 0
1.4285784 1.51482 0.62474912 255 0 0
1.4267522 1.515653 0.62251943 255 0 0
1.424926 1.5164859 0.6202898 255 0 0
1.4230999 1.5173188 0.61806011 255 0 0
1.4212737 1.5181518 0.61583048 255 0 0
1.4194475 1.5189848 0.61360085 255 0 0
1.4176214 1.5198177 0.61137116 255 0 0
1.4157953 1.5206506 0.60914153 255 0 0
1.4139692 1.5214837 0.6069119 255 0 0
1.412143 1.5223166 0.60468221 255 0 0
1.4103168 1.5231495 0.60245252 255 0 0
1.4084907 1.5239824 0.60022289 255 0 0
1.4066645 1.5248154 0.59799325 255 0 0
1.4048383 1.5256484 0.59576356 255 0 0
1.4030122 1.5264813 0.59353393 255 0 0
1.401186 1.5273142 0.5913043 255 0 0
1.3993598 1.5281472 0.58907461 255 0 0
1.3975337 1.5289801 0.58684492 255 0 0
1.3957076 1.5298131 0.58461529 255 0 0
1.3938814 1.530646 0.58238566 255 0 0
1.3920553 1.531479 0.58015597 255 0 0
1.3902291 1.5323119 0.57792634 255 0 0
1.3884029 1.5331448 0.57569671 255 0 0
1.3865768 1.5339777 0.57346702 255 0 0
1.3847506 1.5348108 0.57123733 255 0 0
1.3829244 1.5356437 0.56900769 255 0 0
1.3810983 1.5364766 0.56677806 255 0 0
1.3792721 1.5373096 0.56454837 255 0 0
1.3774459 1.5381426 0.56231874 255 0 0
1.3756199 1.5389755 0.56008905 255 0 0
1.3737937 1.5398084 0.55785942 255 0 0
1.3719676 1.5406414 0.55562973 255 0 0
1.3701414 1.5414743 0.5534001 255 0 0
1.3683152 1.5423073 0.55117047 255 0 0
1.3664891 1.5431402 0.54894078 255 0 0
1.3646629 1.5439732 0.54671115 255 0 0
1.3628367 1.5448061 0.54448146 255 0 0
1.3610106 1.545639 0.54225183 255 0 0
1.3591844 1.5464721 0.54002213 255 0 0
1.3573582 1.547305 0.5377925 255 0 0
1.3555321 1.5481379 0.53556287 255 0 0
1.3537059 1.5489708 0.53333318 255 0 0
1.3518798 1.5498039 0.53110355 255 0 0
1.3500537 1.5506368 0.52887386 255 0 0
1.3482275 1.5514697 0.52664423 255 0 0
1.3464013 1.5523026 0.52441454 255 0 0
1.3445752 1.5531356 0.52218491 255 0 0
1.342749 1.5539685 0.51995528 255 0 0
1.3409228 1.5548015 0.51772559 255 0 0
1.3390967 1.5556344 0.51549596 255 0 0
1.3372705 1.5564674 0.51326627 255 0 0
1.3354443 1.5573003 0.51103663 255 0 0
1.3336182 1.5581332 0.50880694 255 0 0
1.3317921 1.5589662 0.50657731 255 0 0
1.3299659 1.5597992 0.50434768 255 0 0
1.3281398 1.5606321 0.50211799 255 0 0
1.3263136 1.561465 0.49988836 255 0 0
1.3244874 1.5622981 0.4976587 255 0 0
1.3226613 1.563131 0.49542904 255 0 0
1.3208351 1.5639639 0.49319938 255 0 0
1.3190089 1.5647968 0.49096972 255 0 0
1.3171828 1.5656298 0.48874006 255 0 0
1.3153566 1.5664628 0.4865104 255 0 0
1.3135304 1.5672957 0.48428077 255 0 0
1.3117044 1.5681286 0.4820511 255 0 0
1.3098782 1.5689616 0.47982144 255 0 0
1.3080521 1.5697945 0.47759178 255 0 0
1.3062259 1.5706275 0.47536212 255 0 0
1.3043997 1.5714604 0.47313246 255 0 0
1.3025736 1.5722934 0.4709028 255 0 0
1.3007474 1.5731263 0.46867317 255 0 0
1.2989212 1.5739592 0.46644351 255 0 0
1.2970951 1.5747921 0.46421385 255 0 0
1.2952689 1.5756252 0.46198419 255 0 0
1.2934427 1.5764581 0.45975453 255 0 0
1.2916167 1.577291 0.45752487 255 0 0
1.2897905 1.578124 0.45529521 255 0 0
1.2879643 1.578957 0.45306554 255 0 0
1.2861382 1.5797899 0.45083588 255 0 0
1.455871 1.5051069 0.65931457 255 0 0
1.4540448 1.5059398 0.65708494 255 0 0
1.4522187 1.5067728 0.65485525 255 0 0
1.4503925 1.5076058 0.65262562 255 0 0
1.4485663 1.5084387 0.65039593 255 0 0
1.4467403 1.5092716 0.6481663 255 0 0
1.4449141 1.5101045 0.64593661 255 0 0
1.4430879 1.5109376 0.64370698 255 0 0
1.4412618 1.5117705 0.64147735 255 0 0
1.4394356 1.5126034 0.63924766 255 0 0
1.4376094 1.5134363 0.63701797 255 0 0
1.4357833 1.5142694 0.63478833 255 0 0
1.4339571 1.5151023 0.6325587 255 0 0
1.4321309 1.5159352 0.63032901 255 0 0
1.4303048 1.5167681 0.62809938 255 0 0
1.4284787 1.5176011 0.62586975 255 0 0
1.4266526 1.518434 0.62364006 255 0 0
1.4248264 1.519267 0.62141043 255 0 0
1.4230002 1.5200999 0.61918074 255 0 0
1.421174 1.5209329 0.61695111 255 0 0
1.4193479 1.5217658 0.61472142 255 0 0
1.4175217 1.5225987 0.61249179 255 0 0
1.4156955 1.5234318 0.61026216 255 0 0
1.4138694 1.5242647 0.60803246 255 0 0
1.4120432 1.5250976 0.60580283 255 0 0
1.410217 1.5259305 0.60357314 255 0 0
1.408391 1.5267636 0.60134351 255 0 0
1.4065648 1.5275965 0.59911382 255 0 0
1.4047387 1.5284294 0.59688419 255 0 0
1.4029125 1.5292623 0.59465456 255 0 0
1.4010863 1.5300953 0.59242487 255 0 0
1.3992602 1.5309283 0.59019524 255 0 0
1.397434 1.5317612 0.58796555 255 0 0
1.3956078 1.5325941 0.58573592 255 0 0
1.3937817 1.5334271 0.58350623 255 0 0
1.3919555 1.53426 0.5812766 255 0 0
1.3901293 1.5350929 0.57904696 255 0 0
1.3883033 1.5359259 0.57681727 255 0 0
1.3864771 1.5367589 0.57458764 255 0 0
1.3846509 1.5375918 0.57235795 255 0 0
1.3828248 1.5384247 0.57012832 255 0 0
1.3809986 1.5392578 0.56789863 255 0 0
1.3791724 1.5400907 0.565669 255 0 0
1.3773463 1.5409236 0.56343937 255 0 0
1.3755201 1.5417565 0.56120968 255 0 0
1.3736939 1.5425895 0.55897999 255 0 0
1.3718678 1.5434225 0.55675036 255 0 0
1.3700416 1.5442554 0.55452073 255 0 0
1.3682154 1.5450883 0.55229104 255 0 0
1.3663893 1.5459213 0.5500614 255 0 0
1.3645632 1.5467542 0.54783171 255 0 0
1.3627371 1.5475872 0.54560208 255 0 0
1.3609109 1.5484201 0.54337239 255 0 0
1.3590847 1.5492531 0.54114276 255 0 0
1.3572586 1.550086 0.53891313 255 0 0
1.3554324 1.5509189 0.53668344 255 0 0
1.3536062 1.551752 0.53445381 255 0 0
1.3517801 1.5525849 0.53222412 255 0 0
1.3499539 1.5534178 0.52999449 255 0 0
1.3481277 1.5542507 0.5277648 255 0 0
1.3463016 1.5550838 0.52553517 255 0 0
1.3444755 1.5559167 0.52330554 255 0 0
1.3426493 1.5567496 0.52107584 255 0 0
1.3408232 1.5575825 0.51884621 255 0 0
1.338997 1.5584155 0.51661652 255 0 0
1.3371708 1.5592484 0.51438689 255 0 0
1.3353447 1.5600814 0.5121572 255 0 0
1.3335185 1.5609143 0.50992757 255 0 0
1.3316923 1.5617473 0.50769794 255 0 0
1.3298662 1.5625802 0.50546825 255 0 0
1.32804 1.5634131 0.50323862 255 0 0
1.3262138 1.5642462 0.50100893 255 0 0
1.3243878 1.5650791 0.4987793 255 0 0
1.3225616 1.565912 0.49654964 255 0 0
1.3207355 1.5667449 0.49431998 255 0 0
1.3189093 1.5675778 0.49209031 255 0 0
1.3170831 1.5684109 0.48986065 255 0 0
1.315257 1.5692438 0.48763102 255 0 0
1.3134308 1.5700767 0.48540136 255 0 0
1.3116046 1.5709097 0.4831717 255 0 0
1.3097785 1.5717427 0.48094204 255 0 0
1.3079523 1.5725756 0.47871238 255 0 0
1.3061261 1.5734085 0.47648275 255 0 0
1.3043001 1.5742415 0.47425309 255 0 0
1.3024739 1.5750744 0.47202343 255 0 0
1.3006477 1.5759073 0.46979377 255 0 0
1.2988216 1.5767403 0.46756411 255 0 0
1.2969954 1.5775733 0.46533445 255 0 0
1.2951692 1.5784062 0.46310478 255 0 0
1.2933431 1.5792391 0.46087515 255 0 0
1.2915169 1.5800722 0.45864549 255 0 0
1.2896907 1.5809051 0.45641583 255 0 0
1.2878646 1.581738 0.45418614 255 0 0
1.2860384 1.5825709 0.45195651 255 0 0
1.4557713 1.507888 0.6604352 255 0 0
1.4539452 1.5087209 0.65820551 255 0 0
1.452119 1.5095538 0.65597588 255 0 0
1.4502928 1.5103868 0.65374619 255 0 0
1.4484667 1.5112197 0.65151656 255 0 0
1.4466405 1.5120527 0.64928687 255 0 0
1.4448143 1.5128857 0.64705724 255 0 0
1.4429882 1.5137186 0.6448276 255 0 0
1.441162 1.5145515 0.64259791 255 0 0
1.4393358 1.5153844 0.64036822 255 0 0
1.4375098 1.5162175 0.63813859 255 0 0
1.4356836 1.5170504 0.63590896 255 0 0
1.4338574 1.5178833 0.63367927 255 0 0
1.4320313 1.5187162 0.63144964 255 0 0
1.4302051 1.5195493 0.62922001 255 0 0
1.4283789 1.5203822 0.62699032 255 0 0
1.4265528 1.5212151 0.62476063 255 0 0
1.4247266 1.522048 0.622531 255 0 0
1.4229004 1.522881 0.62030137 255 0 0
1.4210743 1.5237139 0.61807168 255 0 0
1.4192481 1.5245469 0.61584204 255 0 0
1.4174221 1.5253799 0.61361241 255 0 0
1.4155959 1.5262128 0.61138272 255 0 0
1.4137697 1.5270457 0.60915309 255 0 0
1.4119436 1.5278786 0.6069234 255 0 0
1.4101174 1.5287117 0.60469377 255 0 0
1.4082912 1.5295446 0.60246408 255 0 0
1.4064651 1.5303775 0.60023445 255 0 0
1.4046389 1.5312104 0.59800482 255 0 0
1.4028127 1.5320435 0.59577513 255 0 0
1.4009866 1.5328764 0.5935455 255 0 0
1.3991604 1.5337093 0.59131581 255 0 0
1.3973343 1.5345422 0.58908617 255 0 0
1.3955082 1.5353752 0.58685648 255 0 0
1.393682 1.5362082 0.58462685 255 0 0
1.3918558 1.5370411 0.58239722 255 0 0
1.3900297 1.537874 0.58016753 255 0 0
1.3882035 1.538707 0.5779379 255 0 0
1.3863773 1.5395399 0.57570821 255 0 0
1.3845512 1.5403728 0.57347858 255 0 0
1.382725 1.5412059 0.57124889 255 0 0
1.3808988 1.5420388 0.56901926 255 0 0
1.3790727 1.5428717 0.56678963 255 0 0
1.3772466 1.5437046 0.56455994 255 0 0
1.3754205 1.5445377 0.56233031 255 0 0
1.3735943 1.5453706 0.56010062 255 0 0
1.3717681 1.5462035 0.55787098 255 0 0
1.3699419 1.5470364 0.55564129 255 0 0
1.3681158 1.5478694 0.55341166 255 0 0
1.3662896 1.5487024 0.55118203 255 0 0
1.3644634 1.5495353 0.54895234 255 0 0
1.3626373 1.5503682 0.54672271 255 0 0
1.3608111 1.5512012 0.54449302 255 0 0
1.3589849 1.5520341 0.54226339 255 0 0
1.3571588 1.5528671 0.5400337 255 0 0
1.3553326 1.5537 0.53780407 255 0 0
1.3535066 1.554533 0.53557444 255 0 0
1.3516804 1.5553659 0.53334475 255 0 0
1.3498542 1.5561988 0.53111506 255 0 0
1.3480281 1.5570319 0.52888542 255 0 0
1.3462019 1.5578648 0.52665579 255 0 0
1.3443757 1.5586977 0.5244261 255 0 0
1.3425496 1.5595306 0.52219647 255 0 0
1.3407234 1.5603637 0.51996684 255 0 0
1.3388972 1.5611966 0.51773715 255 0 0
1.3370711 1.5620295 0.51550752 255 0 0
1.3352449 1.5628624 0.51327783 255 0 0
1.3334188 1.5636954 0.5110482 255 0 0
1.3315927 1.5645283 0.50881851 255 0 0
1.3297665 1.5653613 0.50658888 255 0 0
1.3279403 1.5661942 0.50435925 255 0 0
1.3261142 1.5670272 0.50212955 255 0 0
1.324288 1.5678601 0.49989989 255 0 0
1.3224618 1.568693 0.49767023 255 0 0
1.3206357 1.569526 0.4954406 255 0 0
1.3188095 1.570359 0.49321094 255 0 0
1.3169833 1.5711919 0.49098128 255 0 0
1.3151572 1.5720248 0.48875162 255 0 0
1.3133311 1.5728579 0.48652196 255 0 0
1.311505 1.5736908 0.4842923 255 0 0
1.3096788 1.5745237 0.48206264 255 0 0
1.3078526 1.5753566 0.47983301 255 0 0
1.3060265 1.5761896 0.47760335 255 0 0
1.3042003 1.5770226 0.47537369 255 0 0
1.3023741 1.5778555 0.47314402 255 0 0
1.300548 1.5786884 0.47091436 255 0 0
1.2987218 1.5795214 0.46868473 255 0 0
1.2968956 1.5803543 0.46645507 255 0 0
1.2950695 1.5811872 0.46422541 255 0 0
1.2932434 1.5820202 0.46199575 255 0 0
1.2914172 1.5828532 0.45976609 255 0 0
1.2895911 1.5836861 0.45753643 255 0 0
1.2877649 1.584519 0.45530677 255 0 0
1.2859387 1.5853521 0.45307711 255 0 0
1.4556715 1.510669 0.66155577 255 0 0
1.4538454 1.5115019 0.65932614 255 0 0
1.4520192 1.5123349 0.65709651 255 0 0
1.4501932 1.5131679 0.65486681 255 0 0
1.448367 1.5140008 0.65263712 255 0 0
1.4465408 1.5148338 0.65040749 255 0 0
1.4447147 1.5156667 0.64817786 255 0 0
1.4428885 1.5164996 0.64594817 255 0 0
1.4410623 1.5173326 0.64371854 255 0 0
1.4392362 1.5181656 0.64148885 255 0 0
1.43741 1.5189985 0.63925922 255 0 0
1.4355838 1.5198314 0.63702953 255 0 0
1.4337577 1.5206643 0.6347999 255 0 0
1.4319315 1.5214974 0.63257027 255 0 0
1.4301054 1.5223303 0.63034058 255 0 0
1.4282793 1.5231632 0.62811095 255 0 0
1.4264531 1.5239961 0.62588125 255 0 0
1.4246269 1.5248291 0.62365162 255 0 0
1.4228008 1.5256621 0.62142193 255 0 0
1.4209746 1.526495 0.6191923 255 0 0
1.4191484 1.527328 0.61696267 255 0 0
1.4173223 1.5281609 0.61473298 255 0 0
1.4154961 1.5289938 0.61250335 255 0 0
1.4136699 1.5298268 0.61027372 255 0 0
1.4118438 1.5306598 0.60804403 255 0 0
1.4100177 1.5314927 0.60581434 255 0 0
1.4081916 1.5323256 0.60358471 255 0 0
1.4063654 1.5331585 0.60135508 255 0 0
1.4045392 1.5339916 0.59912539 255 0 0
1.4027131 1.5348245 0.59689575 255 0 0
1.4008869 1.5356574 0.59466612 255 0 0
1.3990607 1.5364903 0.59243643 255 0 0
1.3972346 1.5373234 0.59020674 255 0 0
1.3954084 1.5381563 0.58797711 255 0 0
1.3935822 1.5389892 0.58574748 255 0 0
1.3917561 1.5398221 0.58351779 255 0 0
1.38993 1.5406551 0.58128816 255 0 0
1.3881038 1.5414881 0.57905853 255 0 0
1.3862777 1.542321 0.57682884 255 0 0
1.3844515 1.5431539 0.57459915 255 0 0
1.3826253 1.5439869 0.57236952 255 0 0
1.3807992 1.5448198 0.57013988 255 0 0
1.378973 1.5456527 0.56791019 255 0 0
1.3771468 1.5464858 0.56568056 255 0 0
1.3753207 1.5473187 0.56345087 255 0 0
1.3734945 1.5481516 0.56122124 255 0 0
1.3716683 1.5489845 0.55899155 255 0 0
1.3698422 1.5498176 0.55676192 255 0 0
1.368016 1.5506505 0.55453229 255 0 0
1.36619 1.5514834 0.5523026 255 0 0
1.3643638 1.5523163 0.55007297 255 0 0
1.3625376 1.5531493 0.54784328 255 0 0
1.3607115 1.5539823 0.54561365 255 0 0
1.3588853 1.5548152 0.54338396 255 0 0
1.3570591 1.5556481 0.54115433 255 0 0
1.355233 1.5564811 0.53892469 255 0 0
1.3534068 1.557314 0.536695 255 0 0
1.3515806 1.558147 0.53446537 255 0 0
1.3497545 1.55898 0.53223568 255 0 0
1.3479283 1.5598129 0.53000605 255 0 0
1.3461022 1.5606458 0.52777636 255 0 0
1.3442761 1.5614787 0.52554673 255 0 0
1.3424499 1.5623118 0.5233171 255 0 0
1.3406237 1.5631447 0.52108741 255 0 0
1.3387976 1.5639776 0.51885778 255 0 0
1.3369714 1.5648105 0.51662809 255 0 0
1.3351452 1.5656435 0.51439846 255 0 0
1.3333191 1.5664765 0.51216877 255 0 0
1.3314929 1.5673094 0.50993913 255 0 0
1.3296667 1.5681423 0.5077095 255 0 0
1.3278406 1.5689753 0.50547981 255 0 0
1.3260145 1.5698082 0.50325018 255 0 0
1.3241884 1.5706412 0.50102049 255 0 0
1.3223622 1.5714741 0.49879086 255 0 0
1.320536 1.5723071 0.4965612 255 0 0
1.3187099 1.57314 0.49433154 255 0 0
1.3168837 1.5739729 0.49210188 255 0 0
1.3150575 1.574806 0.48987222 255 0 0
1.3132313 1.5756389 0.48764259 255 0 0
1.3114052 1.5764718 0.48541293 255 0 0
1.309579 1.5773047 0.48318326 255 0 0
1.3077528 1.5781378 0.4809536 255 0 0
1.3059268 1.5789707 0.47872394 255 0 0
1.3041006 1.5798036 0.47649428 255 0 0
1.3022745 1.5806365 0.47426462 255 0 0
1.3004483 1.5814695 0.47203499 255 0 0
1.2986221 1.5823025 0.46980533 255 0 0
1.296796 1.5831354 0.46757567 255 0 0
1.2949698 1.5839683 0.46534601 255 0 0
1.2931436 1.5848013 0.46311635 255 0 0
1.2913175 1.5856342 0.46088669 255 0 0
1.2894913 1.5864671 0.45865703 255 0 0
1.2876651 1.5873001 0.45642737 255 0 0
1.2858391 1.5881331 0.4541977 255 0 0
1.4555719 1.51345 0.66267639 255 0 0
1.4537457 1.5142831 0.66044676 255 0 0
1.4519196 1.515116 0.65821707 255 0 0
1.4500934 1.5159489 0.65598744 255 0 0
1.4482672 1.5167819 0.65375775 255 0 0
1.4464411 1.5176148 0.65152812 255 0 0
1.4446149 1.5184478 0.64929843 255 0 0
1.4427887 1.5192807 0.6470688 255 0 0
1.4409626 1.5201137 0.64483917 255 0 0
1.4391365 1.5209466 0.64260948 255 0 0
1.4373103 1.5217795 0.64037979 255 0 0
1.4354842 1.5226125 0.63815016 255 0 0
1.433658 1.5234455 0.63592052 255 0 0
1.4318318 1.5242784 0.63369083 255 0 0
1.4300057 1.5251113 0.6314612 255 0 0
1.4281795 1.5259442 0.62923157 255 0 0
1.4263533 1.5267773 0.62700188 255 0 0
1.4245272 1.5276102 0.62477225 255 0 0
1.422701 1.5284431 0.62254256 255 0 0
1.4208748 1.529276 0.62031293 255 0 0
1.4190488 1.530109 0.61808324 255 0 0
1.4172226 1.530942 0.61585361 255 0 0
1.4153965 1.5317749 0.61362398 255 0 0
1.4135703 1.5326078 0.61139429 255 0 0
1.4117441 1.5334408 0.60916466 255 0 0
1.409918 1.5342737 0.60693496 255 0 0
1.4080918 1.5351067 0.60470533 255 0 0
1.4062656 1.5359397 0.60247564 255 0 0
1.4044394 1.5367726 0.60024601 255 0 0
1.4026133 1.5376055 0.59801638 255 0 0
1.4007871 1.5384384 0.59578669 255 0 0
1.3989611 1.5392715 0.59355706 255 0 0
1.3971349 1.5401044 0.59132737 255 0 0
1.3953087 1.5409373 0.58909774 255 0 0
1.3934826 1.5417702 0.58686805 255 0 0
1.3916564 1.5426033 0.58463842 255 0 0
1.3898302 1.5434362 0.58240879 255 0 0
1.3880041 1.5442691 0.5801791 255 0 0
1.3861779 1.545102 0.57794946 255 0 0
1.3843517 1.545935 0.57571977 255 0 0
1.3825256 1.546768 0.57349014 255 0 0
1.3806994 1.5476009 0.57126045 255 0 0
1.3788733 1.5484338 0.56903082 255 0 0
1.3770472 1.5492668 0.56680119 255 0 0
1.375221 1.5500997 0.5645715 255 0 0
1.3733948 1.5509326 0.56234181 255 0 0
1.3715687 1.5517657 0.56011218 255 0 0
1.3697425 1.5525986 0.55788255 255 0 0
1.3679163 1.5534315 0.55565286 255 0 0
1.3660902 1.5542644 0.55342323 255 0 0
1.364264 1.5550975 0.55119354 255 0 0
1.3624378 1.5559304 0.5489639 255 0 0
1.3606117 1.5567633 0.54673421 255 0 0
1.3587856 1.5575962 0.54450458 255 0 0
1.3569593 1.5584292 0.54227495 255 0 0
1.3551333 1.5592622 0.54004526 255 0 0
1.3533071 1.5600951 0.53781563 255 0 0
1.351481 1.5609281 0.53558594 255 0 0
1.3496548 1.561761 0.53335631 255 0 0
1.3478286 1.5625939 0.53112662 255 0 0
1.3460025 1.5634269 0.52889699 255 0 0
1.3441763 1.5642599 0.52666736 255 0 0
1.3423501 1.5650928 0.52443767 255 0 0
1.340524 1.5659257 0.52220803 255 0 0
1.3386978 1.5667586 0.51997834 255 0 0
1.3368716 1.5675917 0.51774871 255 0 0
1.3350456 1.5684246 0.51551902 255 0 0
1.3332194 1.5692575 0.51328939 255 0 0
1.3313932 1.5700904 0.51105976 255 0 0
1.3295671 1.5709234 0.50883007 255 0 0
1.3277409 1.5717564 0.50660044 255 0 0
1.3259147 1.5725893 0.50437075 255 0 0
1.3240886 1.5734222 0.50214112 255 0 0
1.3222624 1.5742552 0.49991146 255 0 0
1.3204362 1.5750881 0.4976818 255 0 0
1.3186102 1.5759211 0.49545214 255 0 0
1.3167839 1.5767541 0.4932225 255 0 0
1.3149579 1.577587 0.49099284 255 0 0
1.3131317 1.5784199 0.48876318 255 0 0
1.3113055 1.5792528 0.48653352 255 0 0
1.3094794 1.5800859 0.48430386 255 0 0
1.3076532 1.5809188 0.4820742 255 0 0
1.305827 1.5817517 0.47984457 255 0 0
1.3040009 1.5825846 0.47761491 255 0 0
1.3021747 1.5834177 0.47538525 255 0 0
1.3003485 1.5842506 0.47315559 255 0 0
1.2985225 1.5850835 0.47092593 255 0 0
1.2966962 1.5859164 0.46869627 255 0 0
1.2948701 1.5867494 0.46646661 255 0 0
1.293044 1.5875823 0.46423697 255 0 0
1.2912178 1.5884153 0.46200731 255 0 0
1.2893916 1.5892482 0.45977765 255 0 0
1.2875655 1.5900812 0.45754796 255 0 0
1.2857393 1.5909141 0.45531833 255 0 0
1.4554721 1.5162312 0.66379702 255 0 0
1.4536461 1.5170641 0.66156733 255 0 0
1.4518199 1.517897 0.6593377 255 0 0
1.4499937 1.5187299 0.65710801 255 0 0
1.4481676 1.519563 0.65487838 255 0 0
1.4463414 1.5203959 0.65264869 255 0 0
1.4445152 1.5212288 0.65041906 255 0 0
1.4426891 1.5220618 0.64818943 255 0 0
1.4408629 1.5228947 0.64595973 255 0 0
1.4390367 1.5237277 0.64373004 255 0 0
1.4372106 1.5245606 0.64150041 255 0 0
1.4353844 1.5253936 0.63927078 255 0 0
1.4335582 1.5262265 0.63704109 255 0 0
1.4317322 1.5270594 0.63481146 255 0 0
1.429906 1.5278924 0.63258183 255 0 0
1.4280798 1.5287254 0.63035214 255 0 0
1.4262537 1.5295583 0.62812245 255 0 0
1.4244275 1.5303912 0.62589282 255 0 0
1.4226013 1.5312241 0.62366319 255 0 0
1.4207752 1.5320572 0.6214335 255 0 0
1.418949 1.5328901 0.61920387 255 0 0
1.4171228 1.533723 0.61697423 255 0 0
1.4152967 1.5345559 0.61474454 255 0 0
1.4134705 1.5353889 0.61251491 255 0 0
1.4116445 1.5362219 0.61028522 255 0 0
1.4098183 1.5370548 0.60805559 255 0 0
1.4079921 1.5378878 0.6058259 255 0 0
1.406166 1.5387207 0.60359627 255 0 0
1.4043398 1.5395536 0.60136664 255 0 0
1.4025136 1.5403866 0.59913695 255 0 0
1.4006875 1.5412196 0.59690732 255 0 0
1.3988613 1.5420525 0.59467763 255 0 0
1.3970351 1.5428854 0.592448 255 0 0
1.395209 1.5437183 0.59021831 255 0 0
1.3933828 1.5445514 0.58798867 255 0 0
1.3915567 1.5453843 0.58575904 255 0 0
1.3897306 1.5462172 0.58352935 255 0 0
1.3879044 1.5470501 0.58129972 255 0 0
1.3860782 1.5478832 0.57907003 255 0 0
1.3842521 1.5487161 0.5768404 255 0 0
1.3824259 1.549549 0.57461071 255 0 0
1.3805997 1.5503819 0.57238108 255 0 0
1.3787736 1.5512149 0.57015145 255 0 0
1.3769474 1.5520478 0.56792176 255 0 0
1.3751212 1.5528808 0.56569213 255 0 0
1.3732951 1.5537138 0.56346244 255 0 0
1.3714689 1.5545467 0.56123281 255 0 0
1.3696427 1.5553796 0.55900311 255 0 0
1.3678167 1.5562125 0.55677348 255 0 0
1.3659905 1.5570456 0.55454385 255 0 0
1.3641644 1.5578785 0.55231416 255 0 0
1.3623382 1.5587114 0.55008453 255 0 0
1.360512 1.5595443 0.54785484 255 0 0
1.3586859 1.5603774 0.54562521 255 0 0
1.3568597 1.5612103 0.54339552 255 0 0
1.3550335 1.5620432 0.54116589 255 0 0
1.3532073 1.5628762 0.53893626 255 0 0
1.3513812 1.5637091 0.53670657 255 0 0
1.349555 1.5645421 0.53447688 255 0 0
1.347729 1.565375 0.53224725 255 0 0
1.3459028 1.566208 0.53001761 255 0 0
1.3440766 1.5670409 0.52778792 255 0 0
1.3422505 1.5678738 0.52555829 255 0 0
1.3404243 1.5687068 0.52332866 255 0 0
1.3385981 1.5695398 0.52109897 255 0 0
1.336772 1.5703727 0.51886934 255 0 0
1.3349458 1.5712056 0.51663965 255 0 0
1.3331196 1.5720385 0.51441002 255 0 0
1.3312935 1.5728716 0.51218033 255 0 0
1.3294673 1.5737045 0.5099507 255 0 0
1.3276412 1.5745374 0.50772107 255 0 0
1.3258151 1.5753703 0.50549138 255 0 0
1.3239889 1.5762033 0.50326174 255 0 0
1.3221627 1.5770363 0.50103205 255 0 0
1.3203366 1.5778692 0.49880242 255 0 0
1.3185104 1.5787022 0.49657276 255 0 0
1.3166842 1.5795351 0.4943431 255 0 0
1.3148581 1.580368 0.49211344 255 0 0
1.3130319 1.581201 0.48988378 255 0 0
1.3112059 1.5820339 0.48765412 255 0 0
1.3093796 1.5828669 0.48542446 255 0 0
1.3075535 1.5836998 0.48319483 255 0 0
1.3057274 1.5845327 0.48096517 255 0 0
1.3039012 1.5853658 0.47873551 255 0 0
1.302075 1.5861987 0.47650585 255 0 0
1.3002489 1.5870316 0.47427619 255 0 0
1.2984227 1.5878645 0.47204655 255 0 0
1.2965965 1.5886976 0.46981689 255 0 0
1.2947704 1.5895305 0.46758723 255 0 0
1.2929442 1.5903634 0.46535757 255 0 0
1.291118 1.5911963 0.46312791 255 0 0
1.2892919 1.5920293 0.46089825 255 0 0
1.2874658 1.5928622 0.45866859 255 0 0
1.2856396 1.5936952 0.45643893 255 0 0
1.4553725 1.5190122 0.66491759 255 0 0
1.4535463 1.5198451 0.66268796 255 0 0
1.4517201 1.520678 0.66045833 255 0 0
1.449894 1.5215111 0.65822864 255 0 0
1.4480678 1.522344 0.65599895 255 0 0
1.4462416 1.5231769 0.65376931 255 0 0
1.4444155 1.5240099 0.65153968 255 0 0
1.4425894 1.5248429 0.64930999 255 0 0
1.4407632 1.5256758 0.64708036 255 0 0
1.4389371 1.5265087 0.64485067 255 0 0
1.4371109 1.5273417 0.64262104 255 0 0
1.4352847 1.5281746 0.64039135 255 0 0
1.4334586 1.5290076 0.63816172 255 0 0
1.4316324 1.5298405 0.63593209 255 0 0
1.4298062 1.5306735 0.6337024 255 0 0
1.4279801 1.5315064 0.63147277 255 0 0
1.4261539 1.5323393 0.62924308 255 0 0
1.4243277 1.5331722 0.62701344 255 0 0
1.4225016 1.5340053 0.62478375 255 0 0
1.4206755 1.5348382 0.62255412 255 0 0
1.4188493 1.5356711 0.62032449 255 0 0
1.4170232 1.536504 0.6180948 255 0 0
1.415197 1.5373371 0.61586517 255 0 0
1.4133708 1.53817 0.61363554 255 0 0
1.4115447 1.5390029 0.61140585 255 0 0
1.4097185 1.5398359 0.60917616 255 0 0
1.4078923 1.5406688 0.60694653 255 0 0
1.4060662 1.5415018 0.6047169 255 0 0
1.40424 1.5423347 0.60248721 255 0 0
1.402414 1.5431677 0.60025758 255 0 0
1.4005878 1.5440006 0.59802794 255 0 0
1.3987616 1.5448335 0.59579825 255 0 0
1.3969355 1.5456665 0.59356862 255 0 0
1.3951093 1.5464995 0.59133893 255 0 0
1.3932831 1.5473324 0.5891093 255 0 0
1.391457 1.5481653 0.58687961 255 0 0
1.3896308 1.5489982 0.58464998 255 0 0
1.3878046 1.5498313 0.58242035 255 0 0
1.3859785 1.5506642 0.58019066 255 0 0
1.3841523 1.5514971 0.57796103 255 0 0
1.3823261 1.55233 0.57573134 255 0 0
1.3805001 1.5531631 0.57350171 255 0 0
1.3786739 1.553996 0.57127202 255 0 0
1.3768477 1.5548289 0.56904238 255 0 0
1.3750216 1.5556619 0.56681275 255 0 0
1.3731954 1.5564948 0.56458306 255 0 0
1.3713692 1.5573277 0.56235337 255 0 0
1.3695431 1.5581607 0.56012374 255 0 0
1.3677169 1.5589937 0.55789411 255 0 0
1.3658907 1.5598266 0.55566442 255 0 0
