ply
format ascii 1.0
comment PCL generated
element vertex 1223
property float x
property float y
property float z
property uchar red
property uchar green
property uchar blue
element camera 0
property float view_px
property float view_py
property float view_pz
property float x_axisx
property float x_axisy
property float x_axisz
property float y_axisx
property float y_axisy
property float y_axisz
property float z_axisx
property float z_axisy
property float z_axisz
property float focal
property float scalex
property float scaley
property float centerx
property float centery
property int viewportx
property int viewporty
property float k1
property float k2
end_header
1.382418 1.2795805 0.7144323 0 255 0
1.3824358 1.2836787 0.71729678 0 255 0
1.3824537 1.2877768 0.7201612 0 255 0
1.3824714 1.2918749 0.72302568 0 255 0
1.3824892 1.2959731 0.72589016 0 255 0
1.3825071 1.3000712 0.72875458 0 255 0
1.3825248 1.3041693 0.73161906 0 255 0
1.3825426 1.3082675 0.73448348 0 255 0
1.3825605 1.3123657 0.73734796 0 255 0
1.3825783 1.3164637 0.74021244 0 255 0
1.382596 1.3205619 0.74307692 0 255 0
1.3826138 1.3246601 0.74594134 0 255 0
1.3826317 1.3287581 0.74880582 0 255 0
1.3826494 1.3328563 0.75167024 0 255 0
1.3826672 1.3369545 0.75453472 0 255 0
1.3826851 1.3410525 0.7573992 0 255 0
1.3827028 1.3451507 0.76026362 0 255 0
1.3827206 1.3492489 0.7631281 0 255 0
1.3827384 1.3533469 0.76599258 0 255 0
1.3827562 1.3574451 0.768857 0 255 0
1.382774 1.3615432 0.77172148 0 255 0
1.3827918 1.3656414 0.77458596 0 255 0
1.3828096 1.3697395 0.77745038 0 255 0
1.3828274 1.3738376 0.78031486 0 255 0
1.3828452 1.3779358 0.78317928 0 255 0
1.382863 1.3820339 0.78604376 0 255 0
1.3828808 1.386132 0.78890824 0 255 0
1.3828986 1.3902302 0.79177266 0 255 0
1.3829165 1.3943284 0.79463714 0 255 0
1.3829342 1.3984264 0.79750156 0 255 0
1.382952 1.4025246 0.80036604 0 255 0
1.3829697 1.4066226 0.80323052 0 255 0
1.3829876 1.4107208 0.806095 0 255 0
1.3830054 1.414819 0.80895942 0 255 0
1.3830231 1.4189171 0.8118239 0 255 0
1.383041 1.4230152 0.81468832 0 255 0
1.3830588 1.4271134 0.8175528 0 255 0
1.3830765 1.4312115 0.82041728 0 255 0
1.3830943 1.4353096 0.82328176 0 255 0
1.3831122 1.4394078 0.82614619 0 255 0
1.38313 1.4435059 0.82901067 0 255 0
1.3831477 1.4476041 0.83187509 0 255 0
1.3831656 1.4517022 0.83473957 0 255 0
1.3831834 1.4558003 0.83760405 0 255 0
1.3791143 1.2612932 0.69697773 0 255 0
1.3791322 1.2653912 0.69984221 0 255 0
1.3791499 1.2694894 0.70270663 0 255 0
1.3791677 1.2735876 0.70557112 0 255 0
1.3791856 1.2776856 0.7084356 0 255 0
1.3792033 1.2817838 0.71130002 0 255 0
1.3792211 1.285882 0.7141645 0 255 0
1.3792388 1.2899801 0.71702898 0 255 0
1.3792567 1.2940782 0.7198934 0 255 0
1.3792745 1.2981764 0.72275788 0 255 0
1.3792922 1.3022745 0.72562236 0 255 0
1.3793101 1.3063726 0.72848678 0 255 0
1.3793279 1.3104708 0.73135126 0 255 0
1.3793457 1.3145689 0.73421574 0 255 0
1.3793635 1.3186671 0.73708016 0 255 0
1.3793813 1.3227652 0.73994464 0 255 0
1.3793991 1.3268633 0.74280912 0 255 0
1.3794168 1.3309615 0.74567354 0 255 0
1.3794347 1.3350596 0.74853802 0 255 0
1.3794525 1.3391577 0.7514025 0 255 0
1.3794702 1.3432559 0.75426692 0 255 0
1.3794881 1.3473539 0.7571314 0 255 0
1.3795059 1.3514521 0.75999582 0 255 0
1.3795236 1.3555503 0.7628603 0 255 0
1.3795415 1.3596483 0.76572478 0 255 0
1.3795593 1.3637465 0.7685892 0 255 0
1.379577 1.3678447 0.77145368 0 255 0
1.3795948 1.3719428 0.77431816 0 255 0
1.3796127 1.3760409 0.77718258 0 255 0
1.3796304 1.3801391 0.78004706 0 255 0
1.3796482 1.3842372 0.78291154 0 255 0
1.3796661 1.3883353 0.78577596 0 255 0
1.3796839 1.3924335 0.78864044 0 255 0
1.3797016 1.3965316 0.79150486 0 255 0
1.3797195 1.4006298 0.79436934 0 255 0
1.3797373 1.4047278 0.79723382 0 255 0
1.379755 1.408826 0.80009824 0 255 0
1.3797728 1.4129242 0.80296272 0 255 0
1.3797907 1.4170222 0.8058272 0 255 0
1.3798084 1.4211204 0.80869162 0 255 0
1.3798262 1.4252186 0.8115561 0 255 0
1.3798441 1.4293166 0.81442058 0 255 0
1.3798618 1.4334148 0.817285 0 255 0
1.3798796 1.437513 0.82014948 0 255 0
1.3798975 1.4416111 0.82301396 0 255 0
1.3799152 1.4457092 0.82587838 0 255 0
1.379933 1.4498074 0.82874286 0 255 0
1.3799508 1.4539055 0.83160734 0 255 0
1.3799686 1.4580036 0.83447182 0 255 0
1.3758996 1.2634964 0.69384551 0 255 0
1.3759173 1.2675946 0.69670993 0 255 0
1.3759352 1.2716928 0.69957441 0 255 0
1.375953 1.2757908 0.70243889 0 255 0
1.3759707 1.279889 0.70530331 0 255 0
1.3759886 1.2839872 0.70816779 0 255 0
1.3760064 1.2880852 0.71103227 0 255 0
1.3760241 1.2921834 0.71389669 0 255 0
1.3760419 1.2962816 0.71676117 0 255 0
1.3760598 1.3003796 0.71962565 0 255 0
1.3760775 1.3044778 0.72249007 0 255 0
1.3760953 1.308576 0.72535455 0 255 0
1.3761132 1.312674 0.72821903 0 255 0
1.3761309 1.3167722 0.73108345 0 255 0
1.3761487 1.3208704 0.73394793 0 255 0
1.3761666 1.3249685 0.73681241 0 255 0
1.3761843 1.3290666 0.73967683 0 255 0
1.3762021 1.3331648 0.74254131 0 255 0
1.3762199 1.3372629 0.74540579 0 255 0
1.3762378 1.341361 0.74827021 0 255 0
1.3762555 1.3454592 0.75113469 0 255 0
1.3762733 1.3495573 0.75399911 0 255 0
1.3762912 1.3536555 0.75686359 0 255 0
1.3763089 1.3577535 0.75972807 0 255 0
1.3763267 1.3618517 0.76259249 0 255 0
1.3763446 1.3659499 0.76545697 0 255 0
1.3763623 1.3700479 0.76832145 0 255 0
1.3763801 1.3741461 0.77118587 0 255 0
1.3763978 1.3782443 0.77405035 0 255 0
1.3764157 1.3823423 0.77691483 0 255 0
1.3764335 1.3864405 0.77977926 0 255 0
1.3764513 1.3905387 0.78264374 0 255 0
1.3764691 1.3946368 0.78550816 0 255 0
1.3764869 1.3987349 0.78837264 0 255 0
1.3765047 1.4028331 0.79123712 0 255 0
1.3765225 1.4069312 0.79410154 0 255 0
1.3765403 1.4110293 0.79696602 0 255 0
1.3765581 1.4151274 0.7998305 0 255 0
1.3765758 1.4192256 0.80269492 0 255 0
1.3765937 1.4233238 0.8055594 0 255 0
1.3766115 1.4274218 0.80842388 0 255 0
1.3766292 1.43152 0.8112883 0 255 0
1.3766471 1.4356182 0.81415278 0 255 0
1.3766649 1.4397162 0.81701726 0 255 0
1.3766826 1.4438144 0.81988168 0 255 0
1.3767005 1.4479126 0.82274616 0 255 0
1.3767183 1.4520106 0.82561064 0 255 0
1.376736 1.4561088 0.82847506 0 255 0
1.3767538 1.460207 0.83133954 0 255 0
1.3726848 1.2656997 0.69071323 0 255 0
1.3727026 1.2697979 0.69357771 0 255 0
1.3727204 1.273896 0.69644219 0 255 0
1.3727382 1.2779942 0.69930661 0 255 0
1.372756 1.2820923 0.70217109 0 255 0
1.3727738 1.2861904 0.70503557 0 255 0
1.3727916 1.2902886 0.70789999 0 255 0
1.3728094 1.2943867 0.71076447 0 255 0
1.3728272 1.2984848 0.71362895 0 255 0
1.3728449 1.302583 0.71649337 0 255 0
1.3728628 1.3066812 0.71935785 0 255 0
1.3728806 1.3107792 0.72222233 0 255 0
1.3728983 1.3148774 0.72508675 0 255 0
1.3729162 1.3189756 0.72795123 0 255 0
1.372934 1.3230736 0.73081571 0 255 0
1.3729517 1.3271718 0.73368013 0 255 0
1.3729696 1.33127 0.73654461 0 255 0
1.3729874 1.335368 0.73940909 0 255 0
1.3730052 1.3394662 0.74227351 0 255 0
1.373023 1.3435643 0.74513799 0 255 0
1.3730408 1.3476624 0.74800241 0 255 0
1.3730586 1.3517606 0.75086689 0 255 0
1.3730763 1.3558587 0.75373137 0 255 0
1.3730942 1.3599569 0.75659579 0 255 0
1.373112 1.364055 0.75946027 0 255 0
1.3731297 1.3681531 0.76232475 0 255 0
1.3731476 1.3722513 0.76518917 0 255 0
1.3731654 1.3763494 0.76805365 0 255 0
1.3731831 1.3804475 0.77091813 0 255 0
1.3732009 1.3845457 0.77378255 0 255 0
1.3732188 1.3886439 0.77664703 0 255 0
1.3732365 1.3927419 0.77951145 0 255 0
1.3732543 1.3968401 0.78237593 0 255 0
1.3732722 1.4009383 0.78524041 0 255 0
1.3732899 1.4050363 0.78810483 0 255 0
1.3733077 1.4091345 0.79096931 0 255 0
1.3733256 1.4132326 0.79383373 0 255 0
1.3733433 1.4173307 0.79669821 0 255 0
1.3733611 1.4214289 0.79956269 0 255 0
1.373379 1.425527 0.80242717 0 255 0
1.3733968 1.4296252 0.80529159 0 255 0
1.3734145 1.4337233 0.80815607 0 255 0
1.3734323 1.4378214 0.81102049 0 255 0
1.3734502 1.4419196 0.81388497 0 255 0
1.3734679 1.4460177 0.81674945 0 255 0
1.3734857 1.4501158 0.81961393 0 255 0
1.3735036 1.454214 0.82247835 0 255 0
1.3735213 1.4583122 0.82534283 0 255 0
1.3735391 1.4624102 0.82820731 0 255 0
1.3694701 1.2679031 0.687581 0 255 0
1.3694879 1.2720011 0.69044542 0 255 0
1.3695056 1.2760993 0.6933099 0 255 0
1.3695234 1.2801975 0.69617438 0 255 0
1.3695413 1.2842956 0.69903886 0 255 0
1.369559 1.2883937 0.70190328 0 255 0
1.3695768 1.2924919 0.70476776 0 255 0
1.3695947 1.29659 0.70763218 0 255 0
1.3696125 1.3006881 0.71049666 0 255 0
1.3696302 1.3047863 0.71336114 0 255 0
1.369648 1.3088844 0.71622562 0 255 0
1.3696659 1.3129826 0.71909004 0 255 0
1.3696836 1.3170807 0.72195452 0 255 0
1.3697014 1.3211788 0.72481894 0 255 0
1.3697193 1.325277 0.72768342 0 255 0
1.369737 1.3293751 0.7305479 0 255 0
1.3697548 1.3334732 0.73341233 0 255 0
1.3697727 1.3375714 0.73627681 0 255 0
1.3697904 1.3416696 0.73914129 0 255 0
1.3698082 1.3457676 0.74200571 0 255 0
1.3698261 1.3498658 0.74487019 0 255 0
1.3698438 1.3539639 0.74773467 0 255 0
1.3698616 1.358062 0.75059909 0 255 0
1.3698794 1.3621602 0.75346357 0 255 0
1.3698972 1.3662583 0.75632799 0 255 0
1.369915 1.3703564 0.75919247 0 255 0
1.3699328 1.3744546 0.76205695 0 255 0
1.3699507 1.3785527 0.76492137 0 255 0
1.3699684 1.3826509 0.76778585 0 255 0
1.3699862 1.386749 0.77065033 0 255 0
1.3700039 1.3908471 0.77351475 0 255 0
1.3700218 1.3949453 0.77637923 0 255 0
1.3700396 1.3990433 0.77924371 0 255 0
1.3700573 1.4031415 0.78210813 0 255 0
1.3700752 1.4072397 0.78497261 0 255 0
1.370093 1.4113377 0.78783703 0 255 0
1.3701108 1.4154359 0.79070151 0 255 0
1.3701286 1.4195341 0.79356599 0 255 0
1.3701464 1.4236321 0.79643047 0 255 0
1.3701642 1.4277303 0.79929489 0 255 0
1.370182 1.4318285 0.80215937 0 255 0
1.3701998 1.4359266 0.80502379 0 255 0
1.3702176 1.4400247 0.80788827 0 255 0
1.3702353 1.4441229 0.81075275 0 255 0
1.3702532 1.448221 0.81361723 0 255 0
1.370271 1.4523191 0.81648165 0 255 0
1.3702887 1.4564173 0.81934613 0 255 0
1.3703066 1.4605154 0.82221055 0 255 0
1.3703244 1.4646136 0.82507503 0 255 0
1.3662553 1.2701063 0.68444872 0 255 0
1.3662732 1.2742045 0.6873132 0 255 0
1.3662909 1.2783027 0.69017768 0 255 0
1.3663087 1.2824007 0.6930421 0 255 0
1.3663265 1.2864989 0.69590658 0 255 0
1.3663443 1.2905971 0.69877106 0 255 0
1.3663621 1.2946951 0.70163548 0 255 0
1.3663799 1.2987933 0.70449996 0 255 0
1.3663977 1.3028915 0.70736444 0 255 0
1.3664155 1.3069896 0.71022886 0 255 0
1.3664333 1.3110877 0.71309334 0 255 0
1.3664511 1.3151859 0.71595782 0 255 0
1.3664689 1.319284 0.71882224 0 255 0
1.3664867 1.3233821 0.72168672 0 255 0
1.3665044 1.3274803 0.7245512 0 255 0
1.3665223 1.3315784 0.72741562 0 255 0
1.3665401 1.3356766 0.7302801 0 255 0
1.3665578 1.3397746 0.73314458 0 255 0
1.3665757 1.3438728 0.736009 0 255 0
1.3665935 1.347971 0.73887348 0 255 0
1.3666112 1.352069 0.74173796 0 255 0
1.3666291 1.3561672 0.74460238 0 255 0
1.3666469 1.3602654 0.74746686 0 255 0
1.3666646 1.3643634 0.75033128 0 255 0
1.3666824 1.3684616 0.75319576 0 255 0
1.3667003 1.3725598 0.75606024 0 255 0
1.3667181 1.3766578 0.75892466 0 255 0
1.3667358 1.380756 0.76178914 0 255 0
1.3667537 1.3848542 0.76465362 0 255 0
1.3667715 1.3889523 0.76751804 0 255 0
1.3667892 1.3930504 0.77038252 0 255 0
1.3668071 1.3971485 0.773247 0 255 0
1.3668249 1.4012467 0.77611142 0 255 0
1.3668426 1.4053448 0.7789759 0 255 0
1.3668604 1.4094429 0.78184032 0 255 0
1.3668783 1.4135411 0.7847048 0 255 0
1.366896 1.4176393 0.78756928 0 255 0
1.3669138 1.4217373 0.79043376 0 255 0
1.3669317 1.4258355 0.79329818 0 255 0
1.3669494 1.4299337 0.79616266 0 255 0
1.3669672 1.4340317 0.79902709 0 255 0
1.3669851 1.4381299 0.80189157 0 255 0
1.3670028 1.4422281 0.80475605 0 255 0
1.3670206 1.4463261 0.80762053 0 255 0
1.3670384 1.4504243 0.81048495 0 255 0
1.3670563 1.4545225 0.81334943 0 255 0
1.367074 1.4586205 0.81621385 0 255 0
1.3670918 1.4627187 0.81907833 0 255 0
1.3671097 1.4668169 0.82194281 0 255 0
1.3630406 1.2723097 0.68131649 0 255 0
1.3630583 1.2764078 0.68418097 0 255 0
1.3630762 1.2805059 0.6870454 0 255 0
1.363094 1.2846041 0.68990988 0 255 0
1.3631117 1.2887022 0.69277436 0 255 0
1.3631295 1.2928003 0.69563878 0 255 0
1.3631474 1.2968985 0.69850326 0 255 0
1.3631651 1.3009967 0.70136774 0 255 0
1.3631829 1.3050947 0.70423216 0 255 0
1.3632008 1.3091929 0.70709664 0 255 0
1.3632185 1.3132911 0.70996112 0 255 0
1.3632363 1.3173891 0.71282554 0 255 0
1.3632541 1.3214873 0.71569002 0 255 0
1.363272 1.3255855 0.7185545 0 255 0
1.3632897 1.3296835 0.72141892 0 255 0
1.3633075 1.3337817 0.7242834 0 255 0
1.3633254 1.3378799 0.72714788 0 255 0
1.3633431 1.341978 0.7300123 0 255 0
1.3633609 1.3460761 0.73287678 0 255 0
1.3633788 1.3501742 0.73574126 0 255 0
1.3633965 1.3542724 0.73860568 0 255 0
1.3634143 1.3583705 0.74147016 0 255 0
1.3634322 1.3624686 0.74433458 0 255 0
1.3634499 1.3665668 0.74719906 0 255 0
1.3634677 1.370665 0.75006354 0 255 0
1.3634855 1.374763 0.75292796 0 255 0
1.3635033 1.3788612 0.75579244 0 255 0
1.3635211 1.3829594 0.75865692 0 255 0
1.3635389 1.3870574 0.76152134 0 255 0
1.3635567 1.3911556 0.76438582 0 255 0
1.3635745 1.3952538 0.7672503 0 255 0
1.3635923 1.3993518 0.77011472 0 255 0
1.36361 1.40345 0.7729792 0 255 0
1.3636279 1.4075481 0.77584362 0 255 0
1.3636457 1.4116462 0.7787081 0 255 0
1.3636634 1.4157444 0.78157258 0 255 0
1.3636813 1.4198425 0.784437 0 255 0
1.3636991 1.4239407 0.78730148 0 255 0
1.3637168 1.4280388 0.79016596 0 255 0
1.3637347 1.4321369 0.79303038 0 255 0
1.3637525 1.4362351 0.79589486 0 255 0
1.3637702 1.4403332 0.79875934 0 255 0
1.3637881 1.4444313 0.80162376 0 255 0
1.3638059 1.4485295 0.80448824 0 255 0
1.3638237 1.4526277 0.80735272 0 255 0
1.3638414 1.4567257 0.81021714 0 255 0
1.3638593 1.4608239 0.81308162 0 255 0
1.3638771 1.4649221 0.8159461 0 255 0
1.3638948 1.4690201 0.81881058 0 255 0
1.3598258 1.274513 0.67818427 0 255 0
1.3598436 1.2786111 0.68104869 0 255 0
1.3598614 1.2827092 0.68391317 0 255 0
1.3598793 1.2868074 0.68677765 0 255 0
1.359897 1.2909055 0.68964207 0 255 0
1.3599148 1.2950037 0.69250655 0 255 0
1.3599325 1.2991018 0.69537103 0 255 0
1.3599504 1.3031999 0.69823545 0 255 0
1.3599682 1.3072981 0.70109993 0 255 0
1.3599859 1.3113962 0.70396441 0 255 0
1.3600038 1.3154943 0.70682883 0 255 0
1.3600216 1.3195925 0.70969331 0 255 0
1.3600394 1.3236907 0.71255779 0 255 0
1.3600571 1.3277887 0.71542221 0 255 0
1.360075 1.3318869 0.71828669 0 255 0
1.3600928 1.3359849 0.72115111 0 255 0
1.3601105 1.3400831 0.72401559 0 255 0
1.3601284 1.3441813 0.72688007 0 255 0
1.3601462 1.3482794 0.72974449 0 255 0
1.3601639 1.3523775 0.73260897 0 255 0
1.3601818 1.3564757 0.73547345 0 255 0
1.3601996 1.3605738 0.73833787 0 255 0
1.3602173 1.3646719 0.74120235 0 255 0
1.3602352 1.3687701 0.74406683 0 255 0
1.360253 1.3728682 0.74693125 0 255 0
1.3602707 1.3769664 0.74979573 0 255 0
1.3602885 1.3810645 0.75266016 0 255 0
1.3603064 1.3851626 0.75552464 0 255 0
1.3603241 1.3892608 0.75838912 0 255 0
1.3603419 1.3933589 0.76125354 0 255 0
1.3603598 1.397457 0.76411802 0 255 0
1.3603776 1.4015552 0.7669825 0 255 0
1.3603953 1.4056532 0.76984692 0 255 0
1.3604131 1.4097514 0.7727114 0 255 0
1.360431 1.4138496 0.77557588 0 255 0
1.3604487 1.4179476 0.7784403 0 255 0
1.3604665 1.4220458 0.78130478 0 255 0
1.3604844 1.426144 0.7841692 0 255 0
1.3605021 1.4302421 0.78703368 0 255 0
1.3605199 1.4343402 0.78989816 0 255 0
1.3605378 1.4384384 0.79276264 0 255 0
1.3605555 1.4425365 0.79562706 0 255 0
1.3605733 1.4466347 0.79849154 0 255 0
1.3605912 1.4507328 0.80135596 0 255 0
1.3606089 1.4548309 0.80422044 0 255 0
1.3606267 1.4589291 0.80708492 0 255 0
1.3606445 1.4630272 0.8099494 0 255 0
1.3606623 1.4671253 0.81281382 0 255 0
1.3606801 1.4712235 0.8156783 0 255 0
1.356611 1.2767162 0.67505199 0 255 0
1.3566289 1.2808144 0.67791647 0 255 0
1.3566467 1.2849126 0.68078089 0 255 0
1.3566644 1.2890106 0.68364537 0 255 0
1.3566823 1.2931088 0.68650985 0 255 0
1.3567001 1.2972069 0.68937433 0 255 0
1.3567178 1.3013051 0.69223875 0 255 0
1.3567357 1.3054032 0.69510323 0 255 0
1.3567535 1.3095014 0.69796771 0 255 0
1.3567712 1.3135995 0.70083213 0 255 0
1.356789 1.3176976 0.70369661 0 255 0
1.3568069 1.3217958 0.70656109 0 255 0
1.3568246 1.3258939 0.70942551 0 255 0
1.3568424 1.3299921 0.71228999 0 255 0
1.3568603 1.3340902 0.71515441 0 255 0
1.356878 1.3381883 0.71801889 0 255 0
1.3568958 1.3422865 0.72088337 0 255 0
1.3569136 1.3463845 0.72374779 0 255 0
1.3569314 1.3504827 0.72661227 0 255 0
1.3569492 1.3545809 0.72947675 0 255 0
1.356967 1.3586789 0.73234117 0 255 0
1.3569849 1.3627771 0.73520565 0 255 0
1.3570026 1.3668753 0.73807013 0 255 0
1.3570204 1.3709733 0.74093455 0 255 0
1.3570383 1.3750715 0.74379903 0 255 0
1.357056 1.3791697 0.74666345 0 255 0
1.3570738 1.3832678 0.74952793 0 255 0
1.3570915 1.3873659 0.75239241 0 255 0
1.3571094 1.391464 0.75525683 0 255 0
1.3571272 1.3955622 0.75812131 0 255 0
1.357145 1.3996603 0.76098579 0 255 0
1.3571628 1.4037584 0.76385021 0 255 0
1.3571806 1.4078566 0.76671469 0 255 0
1.3571984 1.4119548 0.76957917 0 255 0
1.3572162 1.4160528 0.77244359 0 255 0
1.357234 1.420151 0.77530807 0 255 0
1.3572518 1.4242492 0.77817249 0 255 0
1.3572695 1.4283472 0.78103697 0 255 0
1.3572874 1.4324454 0.78390145 0 255 0
1.3573052 1.4365436 0.78676593 0 255 0
1.3573229 1.4406416 0.78963035 0 255 0
1.3573408 1.4447398 0.79249483 0 255 0
1.3573586 1.448838 0.79535925 0 255 0
1.3573763 1.4529361 0.79822373 0 255 0
1.3573942 1.4570342 0.80108821 0 255 0
1.357412 1.4611324 0.80395269 0 255 0
1.3574297 1.4652305 0.80681711 0 255 0
1.3574475 1.4693286 0.80968159 0 255 0
1.3574654 1.4734268 0.81254601 0 255 0
1.3533963 1.2789196 0.67191976 0 255 0
1.3534141 1.2830176 0.67478418 0 255 0
1.3534319 1.2871158 0.67764866 0 255 0
1.3534497 1.291214 0.68051314 0 255 0
1.3534675 1.2953122 0.68337756 0 255 0
1.3534853 1.2994102 0.68624204 0 255 0
1.3535031 1.3035084 0.68910652 0 255 0
1.3535209 1.3076065 0.69197094 0 255 0
1.3535386 1.3117046 0.69483542 0 255 0
1.3535565 1.3158028 0.6976999 0 255 0
1.3535743 1.319901 0.70056438 0 255 0
1.353592 1.323999 0.7034288 0 255 0
1.3536099 1.3280972 0.70629328 0 255 0
1.3536277 1.3321953 0.70915771 0 255 0
1.3536454 1.3362935 0.71202219 0 255 0
1.3536633 1.3403916 0.71488667 0 255 0
1.3536811 1.3444897 0.71775109 0 255 0
1.3536988 1.3485879 0.72061557 0 255 0
1.3537166 1.352686 0.72348005 0 255 0
1.3537345 1.3567841 0.72634447 0 255 0
1.3537523 1.3608823 0.72920895 0 255 0
1.35377 1.3649805 0.73207343 0 255 0
1.3537879 1.3690785 0.73493785 0 255 0
1.3538057 1.3731767 0.73780233 0 255 0
1.3538234 1.3772749 0.74066675 0 255 0
1.3538413 1.3813729 0.74353123 0 255 0
1.3538591 1.3854711 0.74639571 0 255 0
1.3538768 1.3895693 0.74926013 0 255 0
1.3538946 1.3936673 0.75212461 0 255 0
1.3539125 1.3977655 0.75498909 0 255 0
1.3539302 1.4018636 0.75785351 0 255 0
1.353948 1.4059618 0.76071799 0 255 0
1.3539659 1.4100599 0.76358247 0 255 0
1.3539836 1.414158 0.76644689 0 255 0
1.3540014 1.4182562 0.76931137 0 255 0
1.3540193 1.4223543 0.77217579 0 255 0
1.354037 1.4264524 0.77504027 0 255 0
1.3540548 1.4305506 0.77790475 0 255 0
1.3540726 1.4346488 0.78076923 0 255 0
1.3540905 1.4387468 0.78363365 0 255 0
1.3541082 1.442845 0.78649813 0 255 0
1.354126 1.4469432 0.78936255 0 255 0
1.3541439 1.4510412 0.79222703 0 255 0
1.3541616 1.4551394 0.79509151 0 255 0
1.3541794 1.4592376 0.79795599 0 255 0
1.3541973 1.4633356 0.80082041 0 255 0
1.354215 1.4674338 0.80368489 0 255 0
1.3542328 1.471532 0.80654931 0 255 0
1.3542506 1.47563 0.80941379 0 255 0
1.3501816 1.2811229 0.66878748 0 255 0
1.3501993 1.285221 0.67165196 0 255 0
1.3502171 1.2893192 0.67451644 0 255 0
1.350235 1.2934172 0.67738086 0 255 0
1.3502527 1.2975154 0.68024534 0 255 0
1.3502705 1.3016136 0.68310982 0 255 0
1.3502884 1.3057117 0.68597424 0 255 0
1.3503062 1.3098098 0.68883872 0 255 0
1.3503239 1.313908 0.6917032 0 255 0
1.3503418 1.3180062 0.69456762 0 255 0
1.3503596 1.3221042 0.6974321 0 255 0
1.3503773 1.3262024 0.70029658 0 255 0
1.3503951 1.3303006 0.703161 0 255 0
1.350413 1.3343986 0.70602548 0 255 0
1.3504307 1.3384968 0.70888996 0 255 0
1.3504485 1.3425949 0.71175438 0 255 0
1.3504664 1.346693 0.71461886 0 255 0
1.3504841 1.3507912 0.71748328 0 255 0
1.3505019 1.3548893 0.72034776 0 255 0
1.3505197 1.3589875 0.72321224 0 255 0
1.3505375 1.3630856 0.72607666 0 255 0
1.3505553 1.3671837 0.72894114 0 255 0
1.3505731 1.3712819 0.73180562 0 255 0
1.3505909 1.37538 0.73467004 0 255 0
1.3506087 1.3794781 0.73753452 0 255 0
1.3506265 1.3835763 0.740399 0 255 0
1.3506444 1.3876743 0.74326342 0 255 0
1.3506621 1.3917725 0.7461279 0 255 0
1.3506799 1.3958707 0.74899232 0 255 0
1.3506978 1.3999687 0.7518568 0 255 0
1.3507155 1.4040669 0.75472128 0 255 0
1.3507333 1.4081651 0.75758576 0 255 0
1.350751 1.4122632 0.76045018 0 255 0
1.3507689 1.4163613 0.76331466 0 255 0
1.3507867 1.4204595 0.76617908 0 255 0
1.3508044 1.4245576 0.76904356 0 255 0
1.3508223 1.4286557 0.77190804 0 255 0
1.3508401 1.4327539 0.77477247 0 255 0
1.3508579 1.436852 0.77763695 0 255 0
1.3508756 1.4409502 0.78050137 0 255 0
1.3508935 1.4450483 0.78336585 0 255 0
1.3509113 1.4491464 0.78623033 0 255 0
1.350929 1.4532446 0.78909481 0 255 0
1.3509469 1.4573427 0.79195923 0 255 0
1.3509647 1.4614408 0.79482371 0 255 0
1.3509824 1.465539 0.79768813 0 255 0
1.3510003 1.4696372 0.80055261 0 255 0
1.3510181 1.4737352 0.80341709 0 255 0
1.3510358 1.4778334 0.80628157 0 255 0
1.3469667 1.2833261 0.66565526 0 255 0
1.3469846 1.2874243 0.66851974 0 255 0
1.3470024 1.2915225 0.67138416 0 255 0
1.3470201 1.2956206 0.67424864 0 255 0
1.347038 1.2997187 0.67711312 0 255 0
1.3470558 1.3038168 0.67997754 0 255 0
1.3470736 1.307915 0.68284202 0 255 0
1.3470914 1.3120131 0.6857065 0 255 0
1.3471092 1.3161113 0.68857092 0 255 0
1.347127 1.3202094 0.6914354 0 255 0
1.3471448 1.3243076 0.69429988 0 255 0
1.3471626 1.3284056 0.6971643 0 255 0
1.3471804 1.3325038 0.70002878 0 255 0
1.3471981 1.336602 0.70289326 0 255 0
1.347216 1.3407 0.70575768 0 255 0
1.3472338 1.3447982 0.70862216 0 255 0
1.3472515 1.3488964 0.71148658 0 255 0
1.3472694 1.3529944 0.71435106 0 255 0
1.3472872 1.3570926 0.71721554 0 255 0
1.3473049 1.3611908 0.72007996 0 255 0
1.3473227 1.3652889 0.72294444 0 255 0
1.3473406 1.369387 0.72580892 0 255 0
1.3473583 1.3734852 0.72867334 0 255 0
1.3473761 1.3775833 0.73153782 0 255 0
1.347394 1.3816814 0.7344023 0 255 0
1.3474118 1.3857796 0.73726672 0 255 0
1.3474295 1.3898777 0.7401312 0 255 0
1.3474474 1.3939759 0.74299562 0 255 0
1.3474652 1.3980739 0.7458601 0 255 0
1.3474829 1.4021721 0.74872458 0 255 0
1.3475008 1.4062703 0.751589 0 255 0
1.3475186 1.4103683 0.75445348 0 255 0
1.3475363 1.4144665 0.75731796 0 255 0
1.3475541 1.4185647 0.76018238 0 255 0
1.347572 1.4226627 0.76304686 0 255 0
1.3475897 1.4267609 0.76591134 0 255 0
1.3476075 1.4308591 0.76877576 0 255 0
1.3476254 1.4349571 0.77164024 0 255 0
1.3476431 1.4390553 0.77450466 0 255 0
1.3476609 1.4431535 0.77736914 0 255 0
1.3476787 1.4472516 0.78023362 0 255 0
1.3476965 1.4513497 0.7830981 0 255 0
1.3477143 1.4554479 0.78596252 0 255 0
1.3477321 1.459546 0.788827 0 255 0
1.3477499 1.4636441 0.79169142 0 255 0
1.3477677 1.4677423 0.7945559 0 255 0
1.3477855 1.4718404 0.79742038 0 255 0
1.3478034 1.4759386 0.80028486 0 255 0
1.3478211 1.4800367 0.80314928 0 255 0
1.343752 1.2855295 0.66252303 0 255 0
1.3437698 1.2896276 0.66538745 0 255 0
1.3437877 1.2937257 0.66825193 0 255 0
1.3438054 1.2978239 0.67111641 0 255 0
1.3438232 1.3019221 0.67398083 0 255 0
1.3438411 1.3060201 0.67684531 0 255 0
1.3438588 1.3101183 0.67970979 0 255 0
1.3438766 1.3142164 0.68257421 0 255 0
1.3438945 1.3183146 0.68543869 0 255 0
1.3439122 1.3224127 0.68830317 0 255 0
1.34393 1.3265109 0.69116759 0 255 0
1.3439479 1.330609 0.69403207 0 255 0
1.3439656 1.3347071 0.69689655 0 255 0
1.3439834 1.3388052 0.69976097 0 255 0
1.3440012 1.3429034 0.70262545 0 255 0
1.3440191 1.3470016 0.70548987 0 255 0
1.3440368 1.3510996 0.70835435 0 255 0
1.3440546 1.3551978 0.71121883 0 255 0
1.3440725 1.359296 0.71408325 0 255 0
1.3440902 1.363394 0.71694773 0 255 0
1.344108 1.3674922 0.71981221 0 255 0
1.3441257 1.3715904 0.72267663 0 255 0
1.3441436 1.3756884 0.72554111 0 255 0
1.3441614 1.3797866 0.72840559 0 255 0
1.3441792 1.3838847 0.73127002 0 255 0
1.344197 1.3879828 0.7341345 0 255 0
1.3442148 1.392081 0.73699892 0 255 0
1.3442326 1.3961791 0.7398634 0 255 0
1.3442504 1.4002773 0.74272788 0 255 0
1.3442682 1.4043754 0.7455923 0 255 0
1.344286 1.4084735 0.74845678 0 255 0
1.3443038 1.4125717 0.75132126 0 255 0
1.3443216 1.4166698 0.75418568 0 255 0
1.3443394 1.4207679 0.75705016 0 255 0
1.3443571 1.4248661 0.75991464 0 255 0
1.344375 1.4289643 0.76277906 0 255 0
1.3443928 1.4330623 0.76564354 0 255 0
1.3444105 1.4371605 0.76850796 0 255 0
1.3444284 1.4412587 0.77137244 0 255 0
1.3444462 1.4453567 0.77423692 0 255 0
1.3444639 1.4494549 0.7771014 0 255 0
1.3444817 1.4535531 0.77996582 0 255 0
1.3444996 1.4576511 0.7828303 0 255 0
1.3445174 1.4617493 0.78569472 0 255 0
1.3445351 1.4658475 0.7885592 0 255 0
1.344553 1.4699455 0.79142368 0 255 0
1.3445708 1.4740437 0.79428816 0 255 0
1.3445885 1.4781418 0.79715258 0 255 0
1.3446064 1.48224 0.80001706 0 255 0
1.3405373 1.2877328 0.65939075 0 255 0
1.3405551 1.2918309 0.66225523 0 255 0
1.340573 1.2959291 0.66511965 0 255 0
1.3405907 1.3000271 0.66798413 0 255 0
1.3406085 1.3041253 0.67084861 0 255 0
1.3406262 1.3082235 0.67371303 0 255 0
1.3406441 1.3123217 0.67657751 0 255 0
1.3406619 1.3164197 0.67944199 0 255 0
1.3406796 1.3205179 0.68230641 0 255 0
1.3406975 1.324616 0.68517089 0 255 0
1.3407153 1.3287141 0.68803537 0 255 0
1.3407331 1.3328123 0.69089979 0 255 0
1.3407509 1.3369104 0.69376427 0 255 0
1.3407687 1.3410085 0.69662875 0 255 0
1.3407865 1.3451067 0.69949317 0 255 0
1.3408042 1.3492048 0.70235765 0 255 0
1.3408221 1.353303 0.70522213 0 255 0
1.3408399 1.3574011 0.70808655 0 255 0
1.3408576 1.3614992 0.71095103 0 255 0
1.3408755 1.3655974 0.71381545 0 255 0
1.3408933 1.3696955 0.71667993 0 255 0
1.340911 1.3737936 0.71954441 0 255 0
1.3409288 1.3778918 0.72240883 0 255 0
1.3409467 1.38199 0.72527331 0 255 0
1.3409644 1.386088 0.72813779 0 255 0
1.3409822 1.3901862 0.73100221 0 255 0
1.3410001 1.3942842 0.73386669 0 255 0
1.3410178 1.3983824 0.73673117 0 255 0
1.3410356 1.4024806 0.73959559 0 255 0
1.3410535 1.4065787 0.74246007 0 255 0
1.3410712 1.4106768 0.74532449 0 255 0
1.341089 1.414775 0.74818897 0 255 0
1.3411069 1.4188731 0.75105345 0 255 0
1.3411247 1.4229712 0.75391793 0 255 0
1.3411424 1.4270694 0.75678235 0 255 0
1.3411602 1.4311675 0.75964683 0 255 0
1.3411781 1.4352657 0.76251125 0 255 0
1.3411958 1.4393638 0.76537573 0 255 0
1.3412136 1.4434619 0.76824021 0 255 0
1.3412315 1.4475601 0.77110463 0 255 0
1.3412492 1.4516582 0.77396911 0 255 0
1.341267 1.4557563 0.77683359 0 255 0
1.3412848 1.4598545 0.77969801 0 255 0
1.3413026 1.4639525 0.78256249 0 255 0
1.3413204 1.4680507 0.78542697 0 255 0
1.3413382 1.4721489 0.78829139 0 255 0
1.341356 1.4762471 0.79115587 0 255 0
1.3413738 1.4803451 0.79402035 0 255 0
1.3413916 1.4844433 0.79688478 0 255 0
1.3373226 1.2899361 0.65625852 0 255 0
1.3373404 1.2940342 0.65912294 0 255 0
1.3373581 1.2981324 0.66198742 0 255 0
1.3373759 1.3022305 0.6648519 0 255 0
1.3373938 1.3063287 0.66771632 0 255 0
1.3374115 1.3104267 0.6705808 0 255 0
1.3374293 1.3145249 0.67344528 0 255 0
1.3374472 1.3186231 0.6763097 0 255 0
1.3374649 1.3227211 0.67917418 0 255 0
1.3374827 1.3268193 0.68203866 0 255 0
1.3375006 1.3309175 0.68490309 0 255 0
1.3375183 1.3350155 0.68776757 0 255 0
1.3375361 1.3391137 0.69063205 0 255 0
1.337554 1.3432119 0.69349647 0 255 0
1.3375717 1.3473099 0.69636095 0 255 0
1.3375895 1.3514081 0.69922543 0 255 0
1.3376073 1.3555063 0.70208985 0 255 0
1.3376251 1.3596044 0.70495433 0 255 0
1.3376429 1.3637025 0.70781875 0 255 0
1.3376607 1.3678007 0.71068323 0 255 0
1.3376786 1.3718988 0.71354771 0 255 0
1.3376963 1.3759969 0.71641213 0 255 0
1.3377141 1.3800951 0.71927661 0 255 0
1.3377318 1.3841932 0.72214109 0 255 0
1.3377497 1.3882914 0.72500551 0 255 0
1.3377675 1.3923894 0.72786999 0 255 0
1.3377852 1.3964876 0.73073447 0 255 0
1.3378031 1.4005858 0.73359889 0 255 0
1.3378209 1.4046838 0.73646337 0 255 0
1.3378386 1.408782 0.73932779 0 255 0
1.3378565 1.4128802 0.74219227 0 255 0
1.3378743 1.4169782 0.74505675 0 255 0
1.3378921 1.4210764 0.74792123 0 255 0
1.3379099 1.4251746 0.75078565 0 255 0
1.3379277 1.4292727 0.75365013 0 255 0
1.3379455 1.4333708 0.75651455 0 255 0
1.3379632 1.437469 0.75937903 0 255 0
1.3379811 1.4415671 0.76224351 0 255 0
1.3379989 1.4456652 0.76510793 0 255 0
1.3380166 1.4497633 0.76797241 0 255 0
1.3380345 1.4538615 0.77083689 0 255 0
1.3380523 1.4579597 0.77370131 0 255 0
1.33807 1.4620577 0.77656579 0 255 0
1.3380878 1.4661559 0.77943027 0 255 0
1.3381057 1.4702541 0.78229469 0 255 0
1.3381234 1.4743521 0.78515917 0 255 0
1.3381412 1.4784503 0.78802365 0 255 0
1.3381591 1.4825485 0.79088807 0 255 0
1.3381768 1.4866467 0.79375255 0 255 0
1.3341078 1.2921394 0.65312624 0 255 0
1.3341256 1.2962375 0.65599072 0 255 0
1.3341434 1.3003356 0.6588552 0 255 0
1.3341612 1.3044338 0.66171962 0 255 0
1.334179 1.3085319 0.6645841 0 255 0
1.3341968 1.3126301 0.66744858 0 255 0
1.3342146 1.3167282 0.670313 0 255 0
1.3342323 1.3208263 0.67317748 0 255 0
1.3342502 1.3249245 0.67604196 0 255 0
1.334268 1.3290226 0.67890638 0 255 0
1.3342857 1.3331207 0.68177086 0 255 0
1.3343036 1.3372189 0.68463534 0 255 0
1.3343214 1.3413171 0.68749976 0 255 0
1.3343391 1.3454151 0.69036424 0 255 0
1.334357 1.3495133 0.69322866 0 255 0
1.3343748 1.3536115 0.69609314 0 255 0
1.3343925 1.3577095 0.69895762 0 255 0
1.3344103 1.3618077 0.70182204 0 255 0
1.3344282 1.3659059 0.70468652 0 255 0
1.334446 1.3700039 0.707551 0 255 0
1.3344637 1.3741021 0.71041542 0 255 0
1.3344816 1.3782003 0.7132799 0 255 0
1.3344994 1.3822984 0.71614432 0 255 0
1.3345171 1.3863965 0.7190088 0 255 0
1.334535 1.3904946 0.72187328 0 255 0
1.3345528 1.3945928 0.72473776 0 255 0
1.3345705 1.3986909 0.72760218 0 255 0
1.3345883 1.402789 0.73046666 0 255 0
1.3346062 1.4068872 0.73333108 0 255 0
1.3346239 1.4109854 0.73619556 0 255 0
1.3346417 1.4150834 0.73906004 0 255 0
1.3346596 1.4191816 0.74192446 0 255 0
1.3346773 1.4232798 0.74478894 0 255 0
1.3346951 1.4273778 0.74765342 0 255 0
1.334713 1.431476 0.75051785 0 255 0
1.3347307 1.4355742 0.75338233 0 255 0
1.3347485 1.4396722 0.75624681 0 255 0
1.3347663 1.4437704 0.75911123 0 255 0
1.3347842 1.4478685 0.76197571 0 255 0
1.3348019 1.4519666 0.76484013 0 255 0
1.3348197 1.4560648 0.76770461 0 255 0
1.3348376 1.4601629 0.77056909 0 255 0
1.3348553 1.4642611 0.77343357 0 255 0
1.3348731 1.4683592 0.77629799 0 255 0
1.334891 1.4724573 0.77916247 0 255 0
1.3349087 1.4765555 0.78202689 0 255 0
1.3349265 1.4806536 0.78489137 0 255 0
1.3349442 1.4847517 0.78775585 0 255 0
1.3349621 1.4888499 0.79062033 0 255 0
1.330893 1.2943426 0.64999402 0 255 0
1.3309108 1.2984408 0.65285844 0 255 0
1.3309287 1.302539 0.65572292 0 255 0
1.3309464 1.306637 0.6585874 0 255 0
1.3309642 1.3107352 0.66145182 0 255 0
1.330982 1.3148334 0.6643163 0 255 0
1.3309999 1.3189315 0.66718078 0 255 0
1.3310176 1.3230296 0.67004526 0 255 0
1.3310354 1.3271278 0.67290968 0 255 0
1.3310533 1.3312259 0.67577416 0 255 0
1.331071 1.335324 0.67863858 0 255 0
1.3310888 1.3394222 0.68150306 0 255 0
1.3311067 1.3435203 0.68436754 0 255 0
1.3311244 1.3476185 0.68723196 0 255 0
1.3311422 1.3517166 0.69009644 0 255 0
1.3311601 1.3558147 0.69296092 0 255 0
1.3311778 1.3599129 0.69582534 0 255 0
1.3311956 1.364011 0.69868982 0 255 0
1.3312135 1.3681091 0.7015543 0 255 0
1.3312312 1.3722073 0.70441872 0 255 0
1.331249 1.3763053 0.7072832 0 255 0
1.3312668 1.3804035 0.71014768 0 255 0
1.3312846 1.3845017 0.7130121 0 255 0
1.3313024 1.3885998 0.71587658 0 255 0
1.3313202 1.3926979 0.71874106 0 255 0
1.3313379 1.3967961 0.72160548 0 255 0
1.3313558 1.4008942 0.72446996 0 255 0
1.3313736 1.4049923 0.72733438 0 255 0
1.3313913 1.4090905 0.73019886 0 255 0
1.3314092 1.4131886 0.73306334 0 255 0
1.331427 1.4172868 0.73592776 0 255 0
1.3314447 1.4213849 0.73879224 0 255 0
1.3314626 1.425483 0.74165672 0 255 0
1.3314804 1.4295812 0.74452114 0 255 0
1.3314981 1.4336793 0.74738562 0 255 0
1.331516 1.4377774 0.7502501 0 255 0
1.3315338 1.4418756 0.75311452 0 255 0
1.3315516 1.4459736 0.755979 0 255 0
1.3315694 1.4500718 0.75884342 0 255 0
1.3315872 1.45417 0.7617079 0 255 0
1.331605 1.458268 0.76457238 0 255 0
1.3316227 1.4623662 0.76743686 0 255 0
1.3316406 1.4664644 0.77030128 0 255 0
1.3316584 1.4705625 0.77316576 0 255 0
1.3316761 1.4746606 0.77603018 0 255 0
1.3316939 1.4787588 0.77889466 0 255 0
1.3317118 1.4828569 0.78175914 0 255 0
1.3317295 1.486955 0.78462362 0 255 0
1.3317473 1.4910532 0.78748804 0 255 0
1.3276783 1.296546 0.64686173 0 255 0
1.3276961 1.3006442 0.64972621 0 255 0
1.3277138 1.3047422 0.65259069 0 255 0
1.3277317 1.3088404 0.65545511 0 255 0
1.3277495 1.3129386 0.65831959 0 255 0
1.3277673 1.3170366 0.66118407 0 255 0
1.3277851 1.3211348 0.66404849 0 255 0
1.3278029 1.325233 0.66691297 0 255 0
1.3278207 1.329331 0.66977745 0 255 0
1.3278384 1.3334292 0.67264187 0 255 0
1.3278563 1.3375274 0.67550635 0 255 0
1.3278741 1.3416255 0.67837083 0 255 0
1.3278918 1.3457236 0.68123525 0 255 0
1.3279097 1.3498218 0.68409973 0 255 0
1.3279275 1.3539199 0.68696421 0 255 0
1.3279452 1.358018 0.68982863 0 255 0
1.3279631 1.3621162 0.69269311 0 255 0
1.3279809 1.3662143 0.69555759 0 255 0
1.3279986 1.3703125 0.69842201 0 255 0
1.3280165 1.3744106 0.70128649 0 255 0
1.3280343 1.3785087 0.70415092 0 255 0
1.328052 1.3826069 0.7070154 0 255 0
1.3280698 1.3867049 0.70987988 0 255 0
1.3280877 1.3908031 0.7127443 0 255 0
1.3281054 1.3949013 0.71560878 0 255 0
1.3281232 1.3989993 0.71847326 0 255 0
1.3281411 1.4030975 0.72133768 0 255 0
1.3281589 1.4071957 0.72420216 0 255 0
1.3281766 1.4112937 0.72706664 0 255 0
1.3281944 1.4153919 0.72993106 0 255 0
1.3282123 1.4194901 0.73279554 0 255 0
1.32823 1.4235882 0.73566002 0 255 0
1.3282478 1.4276863 0.73852444 0 255 0
1.3282657 1.4317845 0.74138892 0 255 0
1.3282834 1.4358826 0.7442534 0 255 0
1.3283012 1.4399807 0.74711782 0 255 0
1.3283191 1.4440788 0.7499823 0 255 0
1.3283368 1.448177 0.75284672 0 255 0
1.3283546 1.4522752 0.7557112 0 255 0
1.3283725 1.4563732 0.75857568 0 255 0
1.3283902 1.4604714 0.7614401 0 255 0
1.328408 1.4645696 0.76430458 0 255 0
1.3284258 1.4686676 0.76716906 0 255 0
1.3284436 1.4727658 0.77003348 0 255 0
1.3284614 1.476864 0.77289796 0 255 0
1.3284792 1.480962 0.77576244 0 255 0
1.3284971 1.4850602 0.77862692 0 255 0
1.3285148 1.4891584 0.78149134 0 255 0
1.3285326 1.4932564 0.78435582 0 255 0
1.3244635 1.2987493 0.64372951 0 255 0
1.3244814 1.3028474 0.64659399 0 255 0
1.3244991 1.3069456 0.64945841 0 255 0
1.3245169 1.3110437 0.65232289 0 255 0
1.3245348 1.3151418 0.65518737 0 255 0
1.3245525 1.31924 0.65805179 0 255 0
1.3245703 1.3233382 0.66091627 0 255 0
1.3245881 1.3274362 0.66378075 0 255 0
1.3246059 1.3315344 0.66664517 0 255 0
1.3246237 1.3356326 0.66950965 0 255 0
1.3246415 1.3397306 0.67237413 0 255 0
1.3246593 1.3438288 0.67523855 0 255 0
1.3246771 1.347927 0.67810303 0 255 0
1.3246949 1.352025 0.68096751 0 255 0
1.3247128 1.3561232 0.68383193 0 255 0
1.3247305 1.3602214 0.68669641 0 255 0
1.3247483 1.3643194 0.68956089 0 255 0
1.3247662 1.3684176 0.69242531 0 255 0
1.3247839 1.3725157 0.69528979 0 255 0
1.3248017 1.3766139 0.69815421 0 255 0
1.3248194 1.380712 0.70101869 0 255 0
1.3248373 1.3848101 0.70388317 0 255 0
1.3248551 1.3889083 0.70674759 0 255 0
1.3248729 1.3930064 0.70961207 0 255 0
1.3248907 1.3971045 0.71247655 0 255 0
1.3249085 1.4012027 0.71534097 0 255 0
1.3249263 1.4053009 0.71820545 0 255 0
1.324944 1.4093989 0.72106993 0 255 0
1.3249619 1.4134971 0.72393435 0 255 0
1.3249797 1.4175953 0.72679883 0 255 0
1.3249974 1.4216933 0.72966325 0 255 0
1.3250153 1.4257915 0.73252773 0 255 0
1.3250331 1.4298897 0.73539221 0 255 0
1.3250508 1.4339877 0.73825663 0 255 0
1.3250687 1.4380859 0.74112111 0 255 0
1.3250865 1.442184 0.74398559 0 255 0
1.3251042 1.4462821 0.74685001 0 255 0
1.3251221 1.4503803 0.74971449 0 255 0
1.3251399 1.4544784 0.75257897 0 255 0
1.3251576 1.4585766 0.75544339 0 255 0
1.3251754 1.4626747 0.75830787 0 255 0
1.3251933 1.4667728 0.76117235 0 255 0
1.325211 1.470871 0.76403677 0 255 0
1.3252288 1.4749691 0.76690125 0 255 0
1.3252467 1.4790672 0.76976573 0 255 0
1.3252645 1.4831654 0.77263016 0 255 0
1.3252822 1.4872636 0.77549464 0 255 0
1.3253 1.4913616 0.77835912 0 255 0
1.3253179 1.4954598 0.78122354 0 255 0
1.3212488 1.3009526 0.64059728 0 255 0
1.3212667 1.3050507 0.6434617 0 255 0
1.3212844 1.3091489 0.64632618 0 255 0
1.3213022 1.313247 0.64919066 0 255 0
1.3213199 1.3173451 0.65205508 0 255 0
1.3213378 1.3214433 0.65491956 0 255 0
1.3213556 1.3255414 0.65778404 0 255 0
1.3213733 1.3296396 0.66064847 0 255 0
1.3213912 1.3337377 0.66351295 0 255 0
1.321409 1.3378358 0.66637743 0 255 0
1.3214267 1.341934 0.66924185 0 255 0
1.3214445 1.3460321 0.67210633 0 255 0
1.3214624 1.3501302 0.67497081 0 255 0
1.3214802 1.3542284 0.67783523 0 255 0
1.3214979 1.3583266 0.68069971 0 255 0
1.3215158 1.3624246 0.68356413 0 255 0
1.3215336 1.3665228 0.68642861 0 255 0
1.3215513 1.370621 0.68929309 0 255 0
1.3215692 1.374719 0.69215751 0 255 0
1.321587 1.3788172 0.69502199 0 255 0
1.3216047 1.3829153 0.69788647 0 255 0
1.3216226 1.3870134 0.70075089 0 255 0
1.3216404 1.3911116 0.70361537 0 255 0
1.3216581 1.3952097 0.70647985 0 255 0
1.3216759 1.3993078 0.70934427 0 255 0
1.3216938 1.403406 0.71220875 0 255 0
1.3217115 1.4075041 0.71507323 0 255 0
1.3217293 1.4116023 0.71793765 0 255 0
1.3217472 1.4157004 0.72080213 0 255 0
1.3217649 1.4197985 0.72366655 0 255 0
1.3217827 1.4238967 0.72653103 0 255 0
1.3218005 1.4279948 0.72939551 0 255 0
1.3218184 1.4320929 0.73225993 0 255 0
1.3218361 1.4361911 0.73512441 0 255 0
1.3218539 1.4402891 0.73798889 0 255 0
1.3218718 1.4443873 0.74085331 0 255 0
1.3218895 1.4484855 0.74371779 0 255 0
1.3219073 1.4525836 0.74658227 0 255 0
1.3219252 1.4566817 0.74944669 0 255 0
1.3219429 1.4607799 0.75231117 0 255 0
1.3219607 1.464878 0.75517559 0 255 0
1.3219786 1.4689761 0.75804007 0 255 0
1.3219963 1.4730743 0.76090455 0 255 0
1.3220141 1.4771724 0.76376903 0 255 0
1.3220319 1.4812706 0.76663345 0 255 0
1.3220497 1.4853687 0.76949793 0 255 0
1.3220675 1.4894668 0.77236235 0 255 0
1.3220853 1.493565 0.77522683 0 255 0
1.3221031 1.4976631 0.77809131 0 255 0
1.3180341 1.3031559 0.637465 0 255 0
1.3180518 1.3072541 0.64032948 0 255 0
1.3180697 1.3113521 0.64319396 0 255 0
1.3180875 1.3154503 0.64605838 0 255 0
1.3181052 1.3195485 0.64892286 0 255 0
1.318123 1.3236465 0.65178734 0 255 0
1.3181409 1.3277447 0.65465176 0 255 0
1.3181586 1.3318429 0.65751624 0 255 0
1.3181764 1.335941 0.66038072 0 255 0
1.3181943 1.3400391 0.66324514 0 255 0
1.318212 1.3441373 0.66610962 0 255 0
1.3182298 1.3482354 0.6689741 0 255 0
1.3182476 1.3523335 0.67183852 0 255 0
1.3182654 1.3564317 0.674703 0 255 0
1.3182832 1.3605298 0.67756742 0 255 0
1.318301 1.364628 0.6804319 0 255 0
1.3183188 1.368726 0.68329638 0 255 0
1.3183366 1.3728242 0.6861608 0 255 0
1.3183544 1.3769224 0.68902528 0 255 0
1.3183722 1.3810204 0.69188976 0 255 0
1.31839 1.3851186 0.69475418 0 255 0
1.3184078 1.3892168 0.69761866 0 255 0
1.3184257 1.3933148 0.70048314 0 255 0
1.3184434 1.397413 0.70334756 0 255 0
1.3184612 1.4015112 0.70621204 0 255 0
1.3184789 1.4056093 0.70907652 0 255 0
1.3184968 1.4097074 0.71194094 0 255 0
1.3185146 1.4138056 0.71480542 0 255 0
1.3185323 1.4179037 0.71766984 0 255 0
1.3185502 1.4220018 0.72053432 0 255 0
1.318568 1.4261 0.7233988 0 255 0
1.3185858 1.4301981 0.72626323 0 255 0
1.3186035 1.4342963 0.72912771 0 255 0
1.3186214 1.4383943 0.73199219 0 255 0
1.3186392 1.4424925 0.73485661 0 255 0
1.3186569 1.4465907 0.73772109 0 255 0
1.3186748 1.4506887 0.74058557 0 255 0
1.3186926 1.4547869 0.74344999 0 255 0
1.3187103 1.4588851 0.74631447 0 255 0
1.3187282 1.4629831 0.74917889 0 255 0
1.318746 1.4670813 0.75204337 0 255 0
1.3187637 1.4711795 0.75490785 0 255 0
1.3187816 1.4752775 0.75777233 0 255 0
1.3187994 1.4793757 0.76063675 0 255 0
1.3188171 1.4834739 0.76350123 0 255 0
1.3188349 1.487572 0.76636565 0 255 0
1.3188528 1.4916701 0.76923013 0 255 0
1.3188705 1.4957683 0.77209461 0 255 0
1.3188883 1.4998664 0.77495909 0 255 0
1.3148193 1.3053592 0.63433278 0 255 0
1.3148371 1.3094573 0.6371972 0 255 0
1.3148549 1.3135555 0.64006168 0 255 0
1.3148727 1.3176537 0.64292616 0 255 0
1.3148905 1.3217517 0.64579058 0 255 0
1.3149083 1.3258499 0.64865506 0 255 0
1.3149261 1.3299481 0.65151954 0 255 0
1.3149439 1.3340461 0.65438396 0 255 0
1.3149617 1.3381443 0.65724844 0 255 0
1.3149794 1.3422425 0.66011292 0 255 0
1.3149973 1.3463405 0.66297734 0 255 0
1.3150151 1.3504387 0.66584182 0 255 0
1.3150328 1.3545369 0.6687063 0 255 0
1.3150507 1.3586349 0.67157072 0 255 0
1.3150685 1.3627331 0.6744352 0 255 0
1.3150862 1.3668313 0.67729968 0 255 0
1.315104 1.3709294 0.6801641 0 255 0
1.3151219 1.3750275 0.68302858 0 255 0
1.3151397 1.3791256 0.68589306 0 255 0
1.3151574 1.3832238 0.68875748 0 255 0
1.3151753 1.3873219 0.69162196 0 255 0
1.3151931 1.39142 0.69448638 0 255 0
1.3152108 1.3955182 0.69735086 0 255 0
1.3152287 1.3996164 0.70021534 0 255 0
1.3152465 1.4037144 0.70307976 0 255 0
1.3152642 1.4078126 0.70594424 0 255 0
1.3152821 1.4119108 0.70880872 0 255 0
1.3152999 1.4160088 0.71167314 0 255 0
1.3153176 1.420107 0.71453762 0 255 0
1.3153354 1.4242052 0.7174021 0 255 0
1.3153533 1.4283032 0.72026652 0 255 0
1.315371 1.4324014 0.723131 0 255 0
1.3153888 1.4364995 0.72599542 0 255 0
1.3154067 1.4405977 0.7288599 0 255 0
1.3154244 1.4446958 0.73172438 0 255 0
1.3154422 1.4487939 0.7345888 0 255 0
1.31546 1.4528921 0.73745328 0 255 0
1.3154778 1.4569902 0.74031776 0 255 0
1.3154956 1.4610883 0.74318218 0 255 0
1.3155134 1.4651865 0.74604666 0 255 0
1.3155313 1.4692847 0.74891114 0 255 0
1.315549 1.4733827 0.75177556 0 255 0
1.3155668 1.4774809 0.75464004 0 255 0
1.3155847 1.4815791 0.75750452 0 255 0
1.3156024 1.4856771 0.76036894 0 255 0
1.3156202 1.4897753 0.76323342 0 255 0
1.3156381 1.4938735 0.7660979 0 255 0
1.3156558 1.4979715 0.76896232 0 255 0
1.3156736 1.5020697 0.7718268 0 255 0
1.3116045 1.3075625 0.63120049 0 255 0
1.3116224 1.3116606 0.63406497 0 255 0
1.3116401 1.3157588 0.63692945 0 255 0
1.3116579 1.3198569 0.63979387 0 255 0
1.3116758 1.3239551 0.64265835 0 255 0
1.3116935 1.3280532 0.64552283 0 255 0
1.3117113 1.3321513 0.64838725 0 255 0
1.3117291 1.3362495 0.65125173 0 255 0
1.311747 1.3403476 0.65411621 0 255 0
1.3117647 1.3444457 0.65698063 0 255 0
1.3117825 1.3485439 0.65984511 0 255 0
1.3118004 1.3526421 0.66270959 0 255 0
1.3118181 1.3567401 0.66557401 0 255 0
1.3118359 1.3608383 0.66843849 0 255 0
1.3118536 1.3649364 0.67130297 0 255 0
1.3118715 1.3690345 0.67416739 0 255 0
1.3118893 1.3731327 0.67703187 0 255 0
1.3119071 1.3772308 0.67989635 0 255 0
1.3119249 1.3813289 0.68276078 0 255 0
1.3119427 1.3854271 0.68562526 0 255 0
1.3119605 1.3895252 0.68848968 0 255 0
1.3119783 1.3936234 0.69135416 0 255 0
1.3119961 1.3977215 0.69421864 0 255 0
1.3120139 1.4018196 0.69708306 0 255 0
1.3120317 1.4059178 0.69994754 0 255 0
1.3120495 1.4100159 0.70281202 0 255 0
1.3120673 1.414114 0.70567644 0 255 0
1.312085 1.4182122 0.70854092 0 255 0
1.3121029 1.4223104 0.7114054 0 255 0
1.3121207 1.4264084 0.71426982 0 255 0
1.3121384 1.4305066 0.7171343 0 255 0
1.3121563 1.4346046 0.71999872 0 255 0
1.3121741 1.4387028 0.7228632 0 255 0
1.3121918 1.442801 0.72572768 0 255 0
1.3122096 1.4468991 0.7285921 0 255 0
1.3122275 1.4509972 0.73145658 0 255 0
1.3122452 1.4550954 0.73432106 0 255 0
1.312263 1.4591935 0.73718548 0 255 0
1.3122809 1.4632916 0.74004996 0 255 0
1.3122987 1.4673898 0.74291444 0 255 0
1.3123164 1.4714879 0.74577886 0 255 0
1.3123343 1.4755861 0.74864334 0 255 0
1.3123521 1.4796842 0.75150782 0 255 0
1.3123698 1.4837823 0.75437224 0 255 0
1.3123877 1.4878805 0.75723672 0 255 0
1.3124055 1.4919786 0.7601012 0 255 0
1.3124232 1.4960767 0.76296562 0 255 0
1.312441 1.5001749 0.7658301 0 255 0
1.3124589 1.5042731 0.76869458 0 255 0
1.3083898 1.3097658 0.62806827 0 255 0
1.3084075 1.313864 0.63093275 0 255 0
1.3084254 1.3179621 0.63379717 0 255 0
1.3084432 1.3220602 0.63666165 0 255 0
1.308461 1.3261584 0.63952613 0 255 0
1.3084788 1.3302565 0.64239055 0 255 0
1.3084966 1.3343546 0.64525503 0 255 0
1.3085144 1.3384528 0.64811951 0 255 0
1.3085322 1.3425509 0.65098393 0 255 0
1.30855 1.3466491 0.65384841 0 255 0
1.3085678 1.3507472 0.65671289 0 255 0
1.3085855 1.3548453 0.65957731 0 255 0
1.3086034 1.3589435 0.66244179 0 255 0
1.3086212 1.3630416 0.66530627 0 255 0
1.3086389 1.3671397 0.66817069 0 255 0
1.3086567 1.3712379 0.67103517 0 255 0
1.3086746 1.3753359 0.67389959 0 255 0
1.3086923 1.3794341 0.67676407 0 255 0
1.3087101 1.3835323 0.67962855 0 255 0
1.308728 1.3876303 0.68249297 0 255 0
1.3087457 1.3917285 0.68535745 0 255 0
1.3087635 1.3958267 0.68822193 0 255 0
1.3087814 1.3999248 0.69108635 0 255 0
1.3087991 1.4040229 0.69395083 0 255 0
1.3088169 1.4081211 0.69681531 0 255 0
1.3088348 1.4122192 0.69967973 0 255 0
1.3088526 1.4163173 0.70254421 0 255 0
1.3088703 1.4204155 0.70540869 0 255 0
1.3088882 1.4245136 0.70827311 0 255 0
1.308906 1.4286118 0.71113759 0 255 0
1.3089237 1.4327098 0.71400201 0 255 0
1.3089415 1.436808 0.71686649 0 255 0
1.3089594 1.4409062 0.71973097 0 255 0
1.3089771 1.4450042 0.72259539 0 255 0
1.3089949 1.4491024 0.72545987 0 255 0
1.3090127 1.4532006 0.72832435 0 255 0
1.3090305 1.4572986 0.73118877 0 255 0
1.3090483 1.4613968 0.73405325 0 255 0
1.3090661 1.465495 0.73691773 0 255 0
1.3090839 1.469593 0.73978215 0 255 0
1.3091017 1.4736912 0.74264663 0 255 0
1.3091195 1.4777894 0.74551111 0 255 0
1.3091373 1.4818875 0.74837554 0 255 0
1.3091551 1.4859856 0.75124002 0 255 0
1.3091729 1.4900838 0.7541045 0 255 0
1.3091908 1.4941819 0.75696892 0 255 0
1.3092085 1.49828 0.7598334 0 255 0
1.3092263 1.5023782 0.76269788 0 255 0
1.3092442 1.5064763 0.7655623 0 255 0
1.3051751 1.311969 0.62493598 0 255 0
1.3051928 1.3160672 0.62780046 0 255 0
1.3052106 1.3201654 0.63066494 0 255 0
1.3052285 1.3242636 0.63352942 0 255 0
1.3052462 1.3283616 0.63639385 0 255 0
1.305264 1.3324598 0.63925833 0 255 0
1.3052819 1.336558 0.64212281 0 255 0
1.3052996 1.340656 0.64498723 0 255 0
1.3053174 1.3447542 0.64785171 0 255 0
1.3053353 1.3488524 0.65071619 0 255 0
1.305353 1.3529505 0.65358061 0 255 0
1.3053708 1.3570486 0.65644509 0 255 0
1.3053886 1.3611467 0.65930951 0 255 0
1.3054065 1.3652449 0.66217399 0 255 0
1.3054242 1.369343 0.66503847 0 255 0
1.305442 1.3734411 0.66790289 0 255 0
1.3054599 1.3775393 0.67076737 0 255 0
1.3054776 1.3816375 0.67363185 0 255 0
1.3054954 1.3857355 0.67649627 0 255 0
1.3055131 1.3898337 0.67936075 0 255 0
1.305531 1.3939319 0.68222523 0 255 0
1.3055488 1.3980299 0.68508965 0 255 0
1.3055665 1.4021281 0.68795413 0 255 0
1.3055844 1.4062263 0.69081855 0 255 0
1.3056022 1.4103243 0.69368303 0 255 0
1.30562 1.4144225 0.69654751 0 255 0
1.3056378 1.4185207 0.69941193 0 255 0
1.3056556 1.4226187 0.70227641 0 255 0
1.3056734 1.4267169 0.70514089 0 255 0
1.3056912 1.430815 0.70800531 0 255 0
1.305709 1.4349132 0.71086979 0 255 0
1.3057268 1.4390113 0.71373427 0 255 0
1.3057445 1.4431094 0.71659869 0 255 0
1.3057624 1.4472076 0.71946317 0 255 0
1.3057802 1.4513057 0.72232759 0 255 0
1.3057979 1.4554038 0.72519207 0 255 0
1.3058158 1.459502 0.72805655 0 255 0
1.3058336 1.4636002 0.73092103 0 255 0
1.3058513 1.4676982 0.73378545 0 255 0
1.3058691 1.4717964 0.73664993 0 255 0
1.305887 1.4758946 0.73951435 0 255 0
1.3059047 1.4799926 0.74237883 0 255 0
1.3059225 1.4840908 0.74524331 0 255 0
1.3059404 1.488189 0.74810779 0 255 0
1.3059582 1.492287 0.75097221 0 255 0
1.3059759 1.4963852 0.75383669 0 255 0
1.3059938 1.5004834 0.75670111 0 255 0
1.3060116 1.5045815 0.75956559 0 255 0
1.3060293 1.5086796 0.76243007 0 255 0
1.3019602 1.3141724 0.62180376 0 255 0
1.3019781 1.3182706 0.62466824 0 255 0
1.3019959 1.3223686 0.62753266 0 255 0
