ply
format ascii 1.0
comment PCL generated
element vertex 1223
property float x
property float y
property float z
property uchar red
property uchar green
property uchar blue
element camera 0
property float view_px
property float view_py
property float view_pz
property float x_axisx
property float x_axisy
property float x_axisz
property float y_axisx
property float y_axisy
property float y_axisz
property float z_axisx
property float z_axisy
property float z_axisz
property float focal
property float scalex
property float scaley
property float centerx
property float centery
property int viewportx
property int viewporty
property float k1
property float k2
end_header
1.4499111 1.5894196 0.45924848 0 255 0
1.4499218 1.5918785 0.46096718 0 255 0
1.4499325 1.5943375 0.46268582 0 255 0
1.4499432 1.5967963 0.46440452 0 255 0
1.4499538 1.5992552 0.46612319 0 255 0
1.4499645 1.6017141 0.46784186 0 255 0
1.4499751 1.6041729 0.46956056 0 255 0
1.4499859 1.6066319 0.4712792 0 255 0
1.4499966 1.6090907 0.4729979 0 255 0
1.4500072 1.6115496 0.47471657 0 255 0
1.4500179 1.6140084 0.47643524 0 255 0
1.4500285 1.6164674 0.47815391 0 255 0
1.4500393 1.6189263 0.47987258 0 255 0
1.45005 1.6213851 0.48159128 0 255 0
1.4500606 1.623844 0.48330995 0 255 0
1.4500713 1.6263028 0.48502862 0 255 0
1.4500819 1.6287618 0.48674729 0 255 0
1.4500927 1.6312206 0.48846596 0 255 0
1.4501033 1.6336795 0.49018466 0 255 0
1.450114 1.6361384 0.49190331 0 255 0
1.4501247 1.6385972 0.493622 0 255 0
1.4501354 1.6410562 0.49534068 0 255 0
1.4501461 1.643515 0.49705935 0 255 0
1.4501567 1.6459739 0.49877805 0 255 0
1.4501674 1.6484327 0.50049669 0 255 0
1.4501781 1.6508917 0.50221539 0 255 0
1.4501888 1.6533506 0.50393403 0 255 0
1.4501995 1.6558094 0.50565273 0 255 0
1.4502101 1.6582683 0.50737143 0 255 0
1.4502208 1.6607271 0.50909007 0 255 0
1.4502314 1.6631861 0.51080877 0 255 0
1.4502422 1.6656449 0.51252741 0 255 0
1.4502529 1.6681038 0.51424611 0 255 0
1.4502635 1.6705627 0.51596475 0 255 0
1.4502742 1.6730216 0.51768345 0 255 0
1.4502848 1.6754805 0.51940215 0 255 0
1.4502956 1.6779393 0.52112079 0 255 0
1.4503062 1.6803982 0.52283949 0 255 0
1.4475018 1.480092 0.38002872 0 255 0
1.4475124 1.4825509 0.38174739 0 255 0
1.4475231 1.4850098 0.38346606 0 255 0
1.4475337 1.4874687 0.38518474 0 255 0
1.4475445 1.4899275 0.38690343 0 255 0
1.4475551 1.4923865 0.38862211 0 255 0
1.4475658 1.4948453 0.39034078 0 255 0
1.4475765 1.4973042 0.39205945 0 255 0
1.4475871 1.4997631 0.39377812 0 255 0
1.4475979 1.5022219 0.39549679 0 255 0
1.4476085 1.5046809 0.39721549 0 255 0
1.4476192 1.5071397 0.39893416 0 255 0
1.4476299 1.5095986 0.40065283 0 255 0
1.4476405 1.5120574 0.4023715 0 255 0
1.4476513 1.5145164 0.40409017 0 255 0
1.4476619 1.5169753 0.40580887 0 255 0
1.4476726 1.5194341 0.40752751 0 255 0
1.4476832 1.521893 0.40924621 0 255 0
1.4476939 1.5243518 0.41096488 0 255 0
1.4477047 1.5268108 0.41268355 0 255 0
1.4477153 1.5292697 0.41440225 0 255 0
1.447726 1.5317285 0.41612089 0 255 0
1.4477366 1.5341874 0.41783959 0 255 0
1.4477473 1.5366462 0.41955826 0 255 0
1.447758 1.5391052 0.42127693 0 255 0
1.4477687 1.541564 0.4229956 0 255 0
1.4477794 1.5440229 0.42471427 0 255 0
1.44779 1.5464818 0.42643297 0 255 0
1.4478008 1.5489407 0.42815161 0 255 0
1.4478114 1.5513996 0.42987031 0 255 0
1.4478221 1.5538584 0.43158898 0 255 0
1.4478328 1.5563173 0.43330765 0 255 0
1.4478434 1.5587761 0.43502635 0 255 0
1.4478542 1.5612351 0.43674499 0 255 0
1.4478648 1.563694 0.43846369 0 255 0
1.4478755 1.5661528 0.44018236 0 255 0
1.4478861 1.5686117 0.44190103 0 255 0
1.4478968 1.5710706 0.44361973 0 255 0
1.4479076 1.5735295 0.44533837 0 255 0
1.4479182 1.5759884 0.44705707 0 255 0
1.4479289 1.5784472 0.44877574 0 255 0
1.4479395 1.5809062 0.45049441 0 255 0
1.4479502 1.583365 0.45221311 0 255 0
1.4479609 1.5858239 0.45393175 0 255 0
1.4479716 1.5882828 0.45565045 0 255 0
1.4479823 1.5907416 0.45736912 0 255 0
1.4479929 1.5932006 0.45908779 0 255 0
1.4480036 1.5956594 0.46080649 0 255 0
1.4480143 1.5981183 0.46252513 0 255 0
1.448025 1.6005771 0.46424383 0 255 0
1.4480357 1.603036 0.4659625 0 255 0
1.4480463 1.605495 0.46768117 0 255 0
1.4480571 1.6079538 0.46939987 0 255 0
1.4480677 1.6104127 0.47111851 0 255 0
1.4480784 1.6128715 0.47283721 0 255 0
1.448089 1.6153305 0.47455588 0 255 0
1.4480997 1.6177894 0.47627455 0 255 0
1.4481105 1.6202482 0.47799325 0 255 0
1.4481211 1.6227071 0.47971189 0 255 0
1.4481318 1.6251659 0.48143059 0 255 0
1.4481424 1.6276249 0.48314926 0 255 0
1.4481531 1.6300838 0.48486793 0 255 0
1.4481637 1.6325426 0.48658663 0 255 0
1.4481745 1.6350015 0.48830527 0 255 0
1.4481852 1.6374604 0.49002397 0 255 0
1.4481958 1.6399193 0.49174264 0 255 0
1.4482065 1.6423781 0.49346131 0 255 0
1.4482172 1.644837 0.49517998 0 255 0
1.4482279 1.647296 0.49689865 0 255 0
1.4482386 1.6497548 0.49861735 0 255 0
1.4482492 1.6522137 0.50033599 0 255 0
1.4482599 1.6546725 0.50205469 0 255 0
1.4482706 1.6571314 0.50377333 0 255 0
1.4482813 1.6595902 0.50549203 0 255 0
1.4482919 1.6620492 0.50721073 0 255 0
1.4483026 1.6645081 0.50892937 0 255 0
1.4483134 1.6669669 0.51064807 0 255 0
1.448324 1.6694258 0.51236677 0 255 0
1.4483347 1.6718847 0.51408541 0 255 0
1.4483453 1.6743436 0.51580405 0 255 0
1.448356 1.6768024 0.51752275 0 255 0
1.4483668 1.6792613 0.51924145 0 255 0
1.4483774 1.6817203 0.52096009 0 255 0
1.4704096 1.1970792 0.78478754 0 255 0
1.4704204 1.199538 0.78650618 0 255 0
1.4704311 1.2019969 0.78822488 0 255 0
1.4704417 1.2044559 0.78994352 0 255 0
1.4704524 1.2069147 0.79166222 0 255 0
1.470463 1.2093736 0.79338086 0 255 0
1.4704738 1.2118324 0.79509956 0 255 0
1.4704845 1.2142913 0.79681826 0 255 0
1.4704951 1.2167501 0.7985369 0 255 0
1.4705058 1.2192091 0.8002556 0 255 0
1.4705164 1.221668 0.80197424 0 255 0
1.4705272 1.2241268 0.80369294 0 255 0
1.4705378 1.2265857 0.80541158 0 255 0
1.4705485 1.2290446 0.80713028 0 255 0
1.4705592 1.2315035 0.80884898 0 255 0
1.4705698 1.2339623 0.81056762 0 255 0
1.4705806 1.2364212 0.81228632 0 255 0
1.4705912 1.2388802 0.81400502 0 255 0
1.4706019 1.241339 0.81572366 0 255 0
1.4706126 1.2437979 0.8174423 0 255 0
1.4706233 1.2462567 0.819161 0 255 0
1.470634 1.2487156 0.8208797 0 255 0
1.4706446 1.2511744 0.82259834 0 255 0
1.4706553 1.2536334 0.82431704 0 255 0
1.4706659 1.2560923 0.82603574 0 255 0
1.4706767 1.2585511 0.82775438 0 255 0
1.4706874 1.2610101 0.82947308 0 255 0
1.470698 1.2634689 0.83119172 0 255 0
1.4707087 1.2659278 0.83291042 0 255 0
1.4707193 1.2683866 0.83462906 0 255 0
1.4707301 1.2708455 0.83634776 0 255 0
1.4707407 1.2733045 0.83806646 0 255 0
1.4707514 1.2757633 0.8397851 0 255 0
1.4707621 1.2782222 0.8415038 0 255 0
1.4707727 1.2806811 0.8432225 0 255 0
1.4707835 1.2831399 0.84494114 0 255 0
1.4707941 1.2855989 0.84665984 0 255 0
1.4708048 1.2880577 0.84837848 0 255 0
1.4708155 1.2905166 0.85009718 0 255 0
1.4708261 1.2929754 0.85181582 0 255 0
1.4708369 1.2954344 0.85353452 0 255 0
1.4708475 1.2978933 0.85525322 0 255 0
1.4708582 1.3003521 0.85697186 0 255 0
1.4708688 1.302811 0.85869056 0 255 0
1.4708796 1.3052698 0.86040926 0 255 0
1.4708903 1.3077288 0.8621279 0 255 0
1.4709009 1.3101877 0.8638466 0 255 0
1.4709116 1.3126465 0.86556524 0 255 0
1.4709222 1.3151054 0.86728394 0 255 0
1.470933 1.3175642 0.86900258 0 255 0
1.4709436 1.3200232 0.87072128 0 255 0
1.4709543 1.3224821 0.87243998 0 255 0
1.470965 1.3249409 0.87415862 0 255 0
1.4709756 1.3273998 0.87587732 0 255 0
1.4709864 1.3298587 0.87759602 0 255 0
1.470997 1.3323176 0.87931466 0 255 0
1.4710077 1.3347764 0.8810333 0 255 0
1.4710184 1.3372353 0.882752 0 255 0
1.471029 1.3396943 0.8844707 0 255 0
1.4710398 1.3421531 0.88618934 0 255 0
1.4710504 1.344612 0.88790804 0 255 0
1.4710611 1.3470708 0.88962674 0 255 0
1.4710717 1.3495297 0.89134538 0 255 0
1.4710824 1.3519886 0.89306408 0 255 0
1.4710932 1.3544475 0.89478272 0 255 0
1.4711038 1.3569064 0.89650142 0 255 0
1.4711145 1.3593652 0.89822006 0 255 0
1.4711251 1.3618242 0.89993876 0 255 0
1.4711359 1.364283 0.90165746 0 255 0
1.4711466 1.3667419 0.9033761 0 255 0
1.4711572 1.3692008 0.9050948 0 255 0
1.4711679 1.3716596 0.9068135 0 255 0
1.4711785 1.3741186 0.90853214 0 255 0
1.4711893 1.3765774 0.91025078 0 255 0
1.4711999 1.3790363 0.91196948 0 255 0
1.4712106 1.3814951 0.91368818 0 255 0
1.4712213 1.383954 0.91540682 0 255 0
1.4712319 1.386413 0.91712552 0 255 0
1.4712427 1.3888718 0.91884422 0 255 0
1.4712533 1.3913307 0.92056286 0 255 0
1.471264 1.3937895 0.9222815 0 255 0
1.4712746 1.3962485 0.92400026 0 255 0
1.4712853 1.3987074 0.9257189 0 255 0
1.4684808 1.1984011 0.78290814 0 255 0
1.4684916 1.20086 0.78462684 0 255 0
1.4685022 1.2033188 0.78634548 0 255 0
1.4685129 1.2057778 0.78806418 0 255 0
1.4685235 1.2082367 0.78978288 0 255 0
1.4685342 1.2106955 0.79150152 0 255 0
1.468545 1.2131544 0.79322022 0 255 0
1.4685556 1.2156134 0.79493886 0 255 0
1.4685663 1.2180722 0.79665756 0 255 0
1.4685769 1.2205311 0.7983762 0 255 0
1.4685876 1.2229899 0.8000949 0 255 0
1.4685982 1.2254488 0.8018136 0 255 0
1.468609 1.2279077 0.80353224 0 255 0
1.4686197 1.2303666 0.80525094 0 255 0
1.4686303 1.2328255 0.80696964 0 255 0
1.468641 1.2352843 0.80868828 0 255 0
1.4686517 1.2377433 0.81040692 0 255 0
1.4686624 1.2402021 0.81212562 0 255 0
1.468673 1.242661 0.81384432 0 255 0
1.4686837 1.2451198 0.81556296 0 255 0
1.4686944 1.2475787 0.81728166 0 255 0
1.4687051 1.2500377 0.81900036 0 255 0
1.4687158 1.2524965 0.820719 0 255 0
1.4687264 1.2549554 0.8224377 0 255 0
1.4687371 1.2574142 0.82415634 0 255 0
1.4687479 1.2598732 0.82587504 0 255 0
1.4687585 1.262332 0.82759368 0 255 0
1.4687692 1.2647909 0.82931238 0 255 0
1.4687798 1.2672498 0.83103108 0 255 0
1.4687905 1.2697086 0.83274972 0 255 0
1.4688011 1.2721676 0.83446842 0 255 0
1.4688119 1.2746264 0.83618712 0 255 0
1.4688226 1.2770853 0.83790576 0 255 0
1.4688332 1.2795441 0.8396244 0 255 0
1.4688439 1.282003 0.8413431 0 255 0
1.4688545 1.284462 0.8430618 0 255 0
1.4688653 1.2869208 0.84478045 0 255 0
1.468876 1.2893797 0.84649915 0 255 0
1.4688866 1.2918386 0.84821784 0 255 0
1.4688973 1.2942975 0.84993649 0 255 0
1.468908 1.2967564 0.85165519 0 255 0
1.4689187 1.2992152 0.85337389 0 255 0
1.4689293 1.3016741 0.85509253 0 255 0
1.46894 1.3041329 0.85681117 0 255 0
1.4689507 1.3065919 0.85852987 0 255 0
1.4689614 1.3090508 0.86024857 0 255 0
1.4689721 1.3115096 0.86196721 0 255 0
1.4689827 1.3139685 0.86368591 0 255 0
1.4689934 1.3164274 0.86540461 0 255 0
1.469004 1.3188863 0.86712325 0 255 0
1.4690148 1.3213452 0.86884195 0 255 0
1.4690255 1.323804 0.87056065 0 255 0
1.4690361 1.326263 0.87227929 0 255 0
1.4690468 1.3287218 0.87399793 0 255 0
1.4690574 1.3311807 0.87571663 0 255 0
1.4690682 1.3336396 0.87743533 0 255 0
1.4690789 1.3360984 0.87915397 0 255 0
1.4690895 1.3385574 0.88087267 0 255 0
1.4691002 1.3410162 0.88259137 0 255 0
1.4691108 1.3434751 0.88431001 0 255 0
1.4691216 1.3459339 0.88602871 0 255 0
1.4691322 1.3483928 0.88774735 0 255 0
1.4691429 1.3508518 0.88946605 0 255 0
1.4691536 1.3533106 0.89118469 0 255 0
1.4691643 1.3557695 0.89290339 0 255 0
1.469175 1.3582283 0.89462209 0 255 0
1.4691856 1.3606873 0.89634073 0 255 0
1.4691963 1.3631461 0.89805943 0 255 0
1.4692069 1.365605 0.89977813 0 255 0
1.4692177 1.3680639 0.90149677 0 255 0
1.4692284 1.3705227 0.90321541 0 255 0
1.469239 1.3729817 0.90493411 0 255 0
1.4692497 1.3754405 0.90665281 0 255 0
1.4692603 1.3778994 0.90837145 0 255 0
1.4692711 1.3803582 0.91009015 0 255 0
1.4692818 1.3828171 0.91180885 0 255 0
1.4692924 1.3852761 0.91352749 0 255 0
1.4693031 1.3877349 0.91524613 0 255 0
1.4693137 1.3901938 0.91696489 0 255 0
1.4693245 1.3926526 0.91868353 0 255 0
1.4693351 1.3951116 0.92040217 0 255 0
1.4693458 1.3975705 0.92212087 0 255 0
1.4693565 1.4000293 0.92383957 0 255 0
1.466552 1.1997231 0.78102881 0 255 0
1.4665626 1.2021821 0.78274751 0 255 0
1.4665734 1.2046409 0.78446615 0 255 0
1.466584 1.2070998 0.78618485 0 255 0
1.4665947 1.2095586 0.78790349 0 255 0
1.4666054 1.2120175 0.78962219 0 255 0
1.466616 1.2144763 0.79134083 0 255 0
1.4666268 1.2169353 0.79305953 0 255 0
1.4666374 1.2193942 0.79477823 0 255 0
1.4666481 1.221853 0.79649687 0 255 0
1.4666587 1.2243119 0.79821557 0 255 0
1.4666694 1.2267708 0.79993427 0 255 0
1.4666802 1.2292297 0.80165291 0 255 0
1.4666908 1.2316885 0.80337155 0 255 0
1.4667015 1.2341474 0.80509025 0 255 0
1.4667121 1.2366064 0.80680895 0 255 0
1.4667228 1.2390652 0.80852759 0 255 0
1.4667335 1.2415241 0.81024629 0 255 0
1.4667442 1.243983 0.81196499 0 255 0
1.4667549 1.2464418 0.81368363 0 255 0
1.4667655 1.2489008 0.81540233 0 255 0
1.4667763 1.2513596 0.81712097 0 255 0
1.4667869 1.2538185 0.81883967 0 255 0
1.4667976 1.2562773 0.82055831 0 255 0
1.4668083 1.2587363 0.82227701 0 255 0
1.4668189 1.2611952 0.82399571 0 255 0
1.4668297 1.263654 0.82571435 0 255 0
1.4668403 1.2661129 0.82743305 0 255 0
1.466851 1.2685717 0.82915169 0 255 0
1.4668616 1.2710307 0.83087039 0 255 0
1.4668723 1.2734895 0.83258903 0 255 0
1.4668831 1.2759484 0.83430773 0 255 0
1.4668937 1.2784073 0.83602643 0 255 0
1.4669044 1.2808661 0.83774507 0 255 0
1.466915 1.2833251 0.83946377 0 255 0
1.4669257 1.2857839 0.84118247 0 255 0
1.4669363 1.2882428 0.84290111 0 255 0
1.4669471 1.2907016 0.84461981 0 255 0
1.4669578 1.2931606 0.84633845 0 255 0
1.4669684 1.2956195 0.84805715 0 255 0
1.4669791 1.2980783 0.84977579 0 255 0
1.4669898 1.3005372 0.85149449 0 255 0
1.4670005 1.3029962 0.85321319 0 255 0
1.4670112 1.305455 0.85493183 0 255 0
1.4670218 1.3079139 0.85665053 0 255 0
1.4670326 1.3103727 0.85836923 0 255 0
1.4670432 1.3128316 0.86008787 0 255 0
1.4670539 1.3152905 0.86180657 0 255 0
1.4670645 1.3177494 0.86352521 0 255 0
1.4670752 1.3202083 0.86524391 0 255 0
1.467086 1.3226671 0.86696255 0 255 0
1.4670966 1.3251261 0.86868125 0 255 0
1.4671073 1.3275849 0.87039995 0 255 0
1.4671179 1.3300438 0.87211859 0 255 0
1.4671286 1.3325027 0.87383729 0 255 0
1.4671394 1.3349615 0.87555599 0 255 0
1.46715 1.3374205 0.87727463 0 255 0
1.4671607 1.3398793 0.87899333 0 255 0
1.4671713 1.3423382 0.88071197 0 255 0
1.467182 1.344797 0.88243067 0 255 0
1.4671926 1.3472559 0.88414931 0 255 0
1.4672034 1.3497149 0.88586801 0 255 0
1.4672141 1.3521737 0.88758671 0 255 0
1.4672247 1.3546326 0.88930535 0 255 0
1.4672354 1.3570914 0.89102405 0 255 0
1.4672461 1.3595504 0.89274275 0 255 0
1.4672568 1.3620093 0.89446139 0 255 0
1.4672674 1.3644681 0.89618003 0 255 0
1.4672781 1.366927 0.89789873 0 255 0
1.4672889 1.3693858 0.89961743 0 255 0
1.4672995 1.3718448 0.90133607 0 255 0
1.4673102 1.3743036 0.90305477 0 255 0
1.4673208 1.3767625 0.90477347 0 255 0
1.4673315 1.3792214 0.90649211 0 255 0
1.4673423 1.3816803 0.90821075 0 255 0
1.4673529 1.3841392 0.90992951 0 255 0
1.4673636 1.386598 0.91164815 0 255 0
1.4673742 1.3890569 0.91336679 0 255 0
1.4673849 1.3915157 0.91508549 0 255 0
1.4673955 1.3939747 0.91680419 0 255 0
1.4674063 1.3964336 0.91852283 0 255 0
1.467417 1.3988924 0.92024153 0 255 0
1.4674276 1.4013513 0.92196023 0 255 0
1.4646231 1.2010452 0.77914941 0 255 0
1.4646338 1.203504 0.78086811 0 255 0
1.4646444 1.2059629 0.78258681 0 255 0
1.4646552 1.2084217 0.78430545 0 255 0
1.4646659 1.2108806 0.78602415 0 255 0
1.4646765 1.2133396 0.78774285 0 255 0
1.4646872 1.2157984 0.78946149 0 255 0
1.4646978 1.2182573 0.79118013 0 255 0
1.4647086 1.2207161 0.79289883 0 255 0
1.4647192 1.223175 0.79461753 0 255 0
1.4647299 1.2256339 0.79633617 0 255 0
1.4647406 1.2280928 0.79805487 0 255 0
1.4647512 1.2305517 0.79977357 0 255 0
1.464762 1.2330105 0.80149221 0 255 0
1.4647726 1.2354695 0.80321091 0 255 0
1.4647833 1.2379283 0.80492955 0 255 0
1.464794 1.2403872 0.80664825 0 255 0
1.4648046 1.242846 0.80836689 0 255 0
1.4648154 1.2453049 0.81008559 0 255 0
1.464826 1.2477639 0.81180429 0 255 0
1.4648367 1.2502227 0.81352293 0 255 0
1.4648473 1.2526816 0.81524163 0 255 0
1.4648581 1.2551404 0.81696028 0 255 0
1.4648688 1.2575994 0.81867898 0 255 0
1.4648794 1.2600582 0.82039762 0 255 0
1.4648901 1.2625171 0.82211632 0 255 0
1.4649007 1.264976 0.82383502 0 255 0
1.4649115 1.2674348 0.82555366 0 255 0
1.4649221 1.2698938 0.82727236 0 255 0
1.4649328 1.2723526 0.82899106 0 255 0
1.4649435 1.2748115 0.8307097 0 255 0
1.4649541 1.2772704 0.8324284 0 255 0
1.4649649 1.2797292 0.83414704 0 255 0
1.4649755 1.2821882 0.83586574 0 255 0
1.4649862 1.284647 0.83758438 0 255 0
1.4649969 1.2871059 0.83930308 0 255 0
1.4650075 1.2895648 0.84102178 0 255 0
1.4650183 1.2920237 0.84274042 0 255 0
1.4650289 1.2944826 0.84445912 0 255 0
1.4650396 1.2969414 0.84617782 0 255 0
1.4650502 1.2994003 0.84789646 0 255 0
1.4650609 1.3018591 0.84961516 0 255 0
1.4650717 1.3043181 0.8513338 0 255 0
1.4650823 1.306777 0.8530525 0 255 0
1.465093 1.3092358 0.85477114 0 255 0
1.4651036 1.3116947 0.85648984 0 255 0
1.4651144 1.3141536 0.85820854 0 255 0
1.465125 1.3166125 0.85992718 0 255 0
1.4651357 1.3190714 0.86164588 0 255 0
1.4651464 1.3215302 0.86336458 0 255 0
1.465157 1.3239892 0.86508322 0 255 0
1.4651678 1.326448 0.86680192 0 255 0
1.4651784 1.3289069 0.86852056 0 255 0
1.4651891 1.3313658 0.87023926 0 255 0
1.4651998 1.3338246 0.8719579 0 255 0
1.4652104 1.3362836 0.8736766 0 255 0
1.4652212 1.3387424 0.8753953 0 255 0
1.4652318 1.3412013 0.87711394 0 255 0
1.4652425 1.3436601 0.87883264 0 255 0
1.4652531 1.346119 0.88055134 0 255 0
1.4652638 1.348578 0.88226998 0 255 0
1.4652746 1.3510368 0.88398862 0 255 0
1.4652852 1.3534957 0.88570732 0 255 0
1.4652959 1.3559545 0.88742602 0 255 0
1.4653065 1.3584135 0.88914466 0 255 0
1.4653172 1.3608724 0.89086336 0 255 0
1.465328 1.3633312 0.89258206 0 255 0
1.4653386 1.3657901 0.8943007 0 255 0
1.4653493 1.3682489 0.8960194 0 255 0
1.4653599 1.3707079 0.89773804 0 255 0
1.4653707 1.3731667 0.89945674 0 255 0
1.4653813 1.3756256 0.90117538 0 255 0
1.465392 1.3780845 0.90289408 0 255 0
1.4654027 1.3805434 0.90461278 0 255 0
1.4654133 1.3830023 0.90633142 0 255 0
1.4654241 1.3854611 0.90805012 0 255 0
1.4654347 1.38792 0.90976882 0 255 0
1.4654454 1.390379 0.91148746 0 255 0
1.465456 1.3928378 0.9132061 0 255 0
1.4654667 1.3952967 0.9149248 0 255 0
1.4654775 1.3977555 0.9166435 0 255 0
1.4654881 1.4002144 0.91836214 0 255 0
1.4654988 1.4026732 0.92008084 0 255 0
1.4626943 1.2023671 0.77727008 0 255 0
1.4627049 1.204826 0.77898878 0 255 0
1.4627156 1.2072848 0.78070748 0 255 0
1.4627264 1.2097437 0.78242612 0 255 0
1.462737 1.2122027 0.78414476 0 255 0
1.4627477 1.2146615 0.78586346 0 255 0
1.4627583 1.2171204 0.78758216 0 255 0
1.462769 1.2195792 0.7893008 0 255 0
1.4627798 1.2220381 0.7910195 0 255 0
1.4627904 1.2244971 0.7927382 0 255 0
1.4628011 1.2269559 0.79445684 0 255 0
1.4628117 1.2294148 0.79617554 0 255 0
1.4628224 1.2318736 0.79789418 0 255 0
1.462833 1.2343326 0.79961288 0 255 0
1.4628438 1.2367914 0.80133152 0 255 0
1.4628545 1.2392503 0.80305022 0 255 0
1.4628651 1.2417092 0.80476892 0 255 0
1.4628758 1.244168 0.80648756 0 255 0
1.4628865 1.246627 0.80820626 0 255 0
1.4628972 1.2490858 0.8099249 0 255 0
1.4629078 1.2515447 0.8116436 0 255 0
1.4629185 1.2540035 0.81336224 0 255 0
1.4629292 1.2564625 0.81508094 0 255 0
1.4629399 1.2589214 0.81679964 0 255 0
1.4629506 1.2613802 0.81851828 0 255 0
1.4629612 1.2638391 0.82023698 0 255 0
1.4629719 1.2662979 0.82195568 0 255 0
1.4629827 1.2687569 0.82367432 0 255 0
1.4629933 1.2712157 0.82539296 0 255 0
1.463004 1.2736746 0.82711166 0 255 0
1.4630146 1.2761335 0.82883036 0 255 0
1.4630253 1.2785923 0.830549 0 255 0
1.4630359 1.2810513 0.8322677 0 255 0
1.4630467 1.2835101 0.8339864 0 255 0
1.4630574 1.285969 0.83570504 0 255 0
1.463068 1.2884279 0.83742374 0 255 0
1.4630787 1.2908868 0.83914244 0 255 0
1.4630893 1.2933457 0.84086108 0 255 0
1.4631001 1.2958045 0.84257972 0 255 0
1.4631107 1.2982634 0.84429842 0 255 0
1.4631214 1.3007224 0.84601712 0 255 0
1.4631321 1.3031812 0.84773576 0 255 0
1.4631428 1.3056401 0.84945446 0 255 0
1.4631535 1.3080989 0.85117316 0 255 0
1.4631641 1.3105578 0.8528918 0 255 0
1.4631748 1.3130167 0.8546105 0 255 0
1.4631855 1.3154756 0.8563292 0 255 0
1.4631962 1.3179345 0.85804784 0 255 0
1.4632069 1.3203933 0.85976648 0 255 0
1.4632175 1.3228523 0.86148518 0 255 0
1.4632282 1.3253111 0.86320388 0 255 0
1.4632388 1.32777 0.86492252 0 255 0
1.4632496 1.3302289 0.86664122 0 255 0
1.4632603 1.3326877 0.86835992 0 255 0
1.4632709 1.3351467 0.87007856 0 255 0
1.4632816 1.3376055 0.87179726 0 255 0
1.4632922 1.3400644 0.8735159 0 255 0
1.463303 1.3425233 0.8752346 0 255 0
1.4633136 1.3449821 0.87695324 0 255 0
1.4633243 1.3474411 0.87867194 0 255 0
1.463335 1.3498999 0.88039064 0 255 0
1.4633456 1.3523588 0.88210928 0 255 0
1.4633564 1.3548176 0.88382798 0 255 0
1.463367 1.3572766 0.88554668 0 255 0
1.4633777 1.3597355 0.88726532 0 255 0
1.4633884 1.3621943 0.88898402 0 255 0
1.4633991 1.3646532 0.89070266 0 255 0
1.4634098 1.367112 0.89242136 0 255 0
1.4634204 1.369571 0.89414001 0 255 0
1.4634311 1.3720298 0.89585871 0 255 0
1.4634417 1.3744887 0.8975774 0 255 0
1.4634525 1.3769476 0.89929605 0 255 0
1.4634632 1.3794065 0.90101475 0 255 0
1.4634738 1.3818654 0.90273345 0 255 0
1.4634845 1.3843242 0.90445209 0 255 0
1.4634951 1.3867831 0.90617073 0 255 0
1.4635059 1.3892421 0.90788943 0 255 0
1.4635166 1.3917009 0.90960813 0 255 0
1.4635272 1.3941598 0.91132677 0 255 0
1.4635379 1.3966186 0.91304547 0 255 0
1.4635485 1.3990775 0.91476417 0 255 0
1.4635593 1.4015363 0.91648281 0 255 0
1.4635699 1.4039953 0.91820145 0 255 0
1.4607654 1.2036891 0.77539074 0 255 0
1.4607761 1.2061479 0.77710938 0 255 0
1.4607868 1.2086068 0.77882808 0 255 0
1.4607974 1.2110658 0.78054678 0 255 0
1.4608082 1.2135246 0.78226542 0 255 0
1.4608188 1.2159835 0.78398412 0 255 0
1.4608295 1.2184423 0.78570282 0 255 0
1.4608401 1.2209013 0.78742146 0 255 0
1.4608508 1.2233601 0.78914016 0 255 0
1.4608616 1.225819 0.79085881 0 255 0
1.4608722 1.2282779 0.79257751 0 255 0
1.4608829 1.2307367 0.79429615 0 255 0
1.4608935 1.2331957 0.79601485 0 255 0
1.4609042 1.2356545 0.79773355 0 255 0
1.460915 1.2381134 0.79945219 0 255 0
1.4609256 1.2405723 0.80117089 0 255 0
1.4609363 1.2430311 0.80288953 0 255 0
1.4609469 1.2454901 0.80460823 0 255 0
1.4609576 1.2479489 0.80632687 0 255 0
1.4609683 1.2504078 0.80804557 0 255 0
1.460979 1.2528667 0.80976427 0 255 0
1.4609897 1.2553256 0.81148291 0 255 0
1.4610003 1.2577845 0.81320161 0 255 0
1.4610111 1.2602433 0.81492031 0 255 0
1.4610217 1.2627022 0.81663895 0 255 0
1.4610324 1.265161 0.81835759 0 255 0
1.4610431 1.26762 0.82007629 0 255 0
1.4610537 1.2700789 0.82179499 0 255 0
1.4610645 1.2725377 0.82351363 0 255 0
1.4610751 1.2749966 0.82523233 0 255 0
1.4610858 1.2774554 0.82695103 0 255 0
1.4610964 1.2799144 0.82866967 0 255 0
1.4611071 1.2823732 0.83038837 0 255 0
1.4611179 1.2848321 0.83210701 0 255 0
1.4611285 1.287291 0.83382571 0 255 0
1.4611392 1.2897499 0.83554435 0 255 0
1.4611498 1.2922088 0.83726305 0 255 0
1.4611605 1.2946676 0.83898175 0 255 0
1.4611712 1.2971265 0.84070039 0 255 0
1.4611819 1.2995855 0.84241909 0 255 0
1.4611926 1.3020443 0.84413779 0 255 0
1.4612032 1.3045032 0.84585643 0 255 0
1.4612139 1.306962 0.84757513 0 255 0
1.4612246 1.3094209 0.84929377 0 255 0
1.4612353 1.3118799 0.85101247 0 255 0
1.461246 1.3143387 0.85273111 0 255 0
1.4612566 1.3167976 0.85444981 0 255 0
1.4612674 1.3192564 0.85616851 0 255 0
1.461278 1.3217154 0.85788715 0 255 0
1.4612887 1.3241742 0.85960585 0 255 0
1.4612993 1.3266331 0.86132455 0 255 0
1.46131 1.329092 0.86304319 0 255 0
1.4613208 1.3315508 0.86476189 0 255 0
1.4613314 1.3340098 0.86648053 0 255 0
1.4613421 1.3364686 0.86819923 0 255 0
1.4613527 1.3389275 0.86991787 0 255 0
1.4613634 1.3413864 0.87163657 0 255 0
1.461374 1.3438452 0.87335527 0 255 0
1.4613848 1.3463042 0.87507391 0 255 0
1.4613955 1.348763 0.87679261 0 255 0
1.4614061 1.3512219 0.87851131 0 255 0
1.4614168 1.3536808 0.88022995 0 255 0
1.4614275 1.3561397 0.88194865 0 255 0
1.4614382 1.3585986 0.88366729 0 255 0
1.4614489 1.3610574 0.88538599 0 255 0
1.4614595 1.3635163 0.88710463 0 255 0
1.4614702 1.3659751 0.88882333 0 255 0
1.4614809 1.3684341 0.89054203 0 255 0
1.4614916 1.370893 0.89226067 0 255 0
1.4615022 1.3733518 0.89397937 0 255 0
1.4615129 1.3758107 0.89569801 0 255 0
1.4615237 1.3782696 0.89741671 0 255 0
1.4615343 1.3807285 0.89913535 0 255 0
1.461545 1.3831873 0.90085405 0 255 0
1.4615556 1.3856462 0.90257275 0 255 0
1.4615663 1.3881052 0.90429139 0 255 0
1.4615769 1.390564 0.90601009 0 255 0
1.4615877 1.3930229 0.90772879 0 255 0
1.4615984 1.3954817 0.90944743 0 255 0
1.461609 1.3979406 0.91116607 0 255 0
1.4616197 1.4003994 0.91288477 0 255 0
1.4616303 1.4028584 0.91460347 0 255 0
1.4616411 1.4053173 0.91632211 0 255 0
1.4588366 1.2050111 0.77351141 0 255 0
1.4588473 1.2074699 0.77523005 0 255 0
1.4588579 1.2099289 0.77694875 0 255 0
1.4588686 1.2123877 0.77866739 0 255 0
1.4588792 1.2148466 0.78038609 0 255 0
1.45889 1.2173054 0.78210473 0 255 0
1.4589007 1.2197644 0.78382343 0 255 0
1.4589113 1.2222233 0.78554213 0 255 0
1.458922 1.2246821 0.78726077 0 255 0
1.4589326 1.227141 0.78897947 0 255 0
1.4589434 1.2295998 0.79069811 0 255 0
1.458954 1.2320588 0.79241681 0 255 0
1.4589647 1.2345176 0.79413545 0 255 0
1.4589754 1.2369765 0.79585415 0 255 0
1.458986 1.2394354 0.79757285 0 255 0
1.4589968 1.2418942 0.79929149 0 255 0
1.4590074 1.2443532 0.80101019 0 255 0
1.4590181 1.246812 0.80272889 0 255 0
1.4590287 1.2492709 0.80444753 0 255 0
1.4590394 1.2517297 0.80616617 0 255 0
1.4590502 1.2541887 0.80788487 0 255 0
1.4590608 1.2566476 0.80960357 0 255 0
1.4590715 1.2591064 0.81132221 0 255 0
1.4590821 1.2615653 0.81304091 0 255 0
1.4590929 1.2640241 0.81475961 0 255 0
1.4591036 1.2664831 0.81647825 0 255 0
1.4591142 1.268942 0.81819695 0 255 0
1.4591249 1.2714008 0.81991559 0 255 0
1.4591355 1.2738597 0.82163429 0 255 0
1.4591463 1.2763186 0.82335293 0 255 0
1.4591569 1.2787775 0.82507163 0 255 0
1.4591676 1.2812364 0.82679033 0 255 0
1.4591783 1.2836952 0.82850897 0 255 0
1.4591889 1.2861542 0.83022767 0 255 0
1.4591997 1.288613 0.83194637 0 255 0
1.4592103 1.2910719 0.83366501 0 255 0
1.459221 1.2935307 0.83538371 0 255 0
1.4592317 1.2959896 0.83710235 0 255 0
1.4592423 1.2984486 0.83882105 0 255 0
1.4592531 1.3009074 0.84053969 0 255 0
1.4592637 1.3033663 0.84225839 0 255 0
1.4592744 1.3058251 0.84397709 0 255 0
1.459285 1.308284 0.84569573 0 255 0
1.4592957 1.310743 0.84741443 0 255 0
1.4593065 1.3132018 0.84913313 0 255 0
1.4593171 1.3156607 0.85085177 0 255 0
1.4593278 1.3181195 0.85257047 0 255 0
1.4593384 1.3205785 0.85428911 0 255 0
1.4593492 1.3230374 0.85600781 0 255 0
1.4593598 1.3254962 0.85772645 0 255 0
1.4593705 1.3279551 0.85944515 0 255 0
1.4593812 1.3304139 0.86116385 0 255 0
1.4593918 1.3328729 0.86288249 0 255 0
1.4594026 1.3353317 0.86460119 0 255 0
1.4594132 1.3377906 0.86631989 0 255 0
1.4594239 1.3402495 0.86803854 0 255 0
1.4594346 1.3427083 0.86975718 0 255 0
1.4594452 1.3451673 0.87147588 0 255 0
1.459456 1.3476261 0.87319458 0 255 0
1.4594666 1.350085 0.87491322 0 255 0
1.4594773 1.3525438 0.87663192 0 255 0
1.4594879 1.3550028 0.87835062 0 255 0
1.4594986 1.3574617 0.88006926 0 255 0
1.4595094 1.3599205 0.88178796 0 255 0
1.45952 1.3623794 0.8835066 0 255 0
1.4595307 1.3648382 0.8852253 0 255 0
1.4595413 1.3672972 0.88694394 0 255 0
1.459552 1.3697561 0.88866264 0 255 0
1.4595627 1.3722149 0.89038134 0 255 0
1.4595734 1.3746738 0.89209998 0 255 0
1.4595841 1.3771327 0.89381868 0 255 0
1.4595947 1.3795916 0.89553738 0 255 0
1.4596055 1.3820504 0.89725602 0 255 0
1.4596161 1.3845093 0.89897466 0 255 0
1.4596268 1.3869683 0.90069336 0 255 0
1.4596375 1.3894271 0.90241206 0 255 0
1.4596481 1.391886 0.9041307 0 255 0
1.4596589 1.3943448 0.9058494 0 255 0
1.4596695 1.3968037 0.9075681 0 255 0
1.4596802 1.3992627 0.90928674 0 255 0
1.4596908 1.4017215 0.91100538 0 255 0
1.4597015 1.4041804 0.91272414 0 255 0
1.4597123 1.4066392 0.91444278 0 255 0
1.4569077 1.206333 0.77163202 0 255 0
1.4569184 1.208792 0.77335072 0 255 0
1.4569291 1.2112508 0.77506936 0 255 0
1.4569397 1.2137097 0.77678806 0 255 0
1.4569504 1.2161686 0.77850676 0 255 0
1.4569612 1.2186275 0.7802254 0 255 0
1.4569718 1.2210864 0.7819441 0 255 0
1.4569825 1.2235452 0.78366274 0 255 0
1.4569931 1.2260041 0.78538144 0 255 0
1.4570038 1.2284629 0.78710008 0 255 0
1.4570144 1.2309219 0.78881878 0 255 0
1.4570252 1.2333808 0.79053748 0 255 0
1.4570359 1.2358396 0.79225612 0 255 0
1.4570465 1.2382985 0.79397482 0 255 0
1.4570572 1.2407573 0.79569352 0 255 0
1.4570678 1.2432163 0.79741216 0 255 0
1.4570786 1.2456751 0.7991308 0 255 0
1.4570892 1.248134 0.8008495 0 255 0
1.4570999 1.2505929 0.8025682 0 255 0
1.4571106 1.2530518 0.80428684 0 255 0
1.4571213 1.2555107 0.80600554 0 255 0
1.457132 1.2579695 0.80772424 0 255 0
1.4571426 1.2604284 0.80944288 0 255 0
1.4571533 1.2628872 0.81116158 0 255 0
1.457164 1.2653462 0.81288022 0 255 0
1.4571747 1.2678051 0.81459892 0 255 0
1.4571854 1.2702639 0.81631756 0 255 0
1.457196 1.2727228 0.81803626 0 255 0
1.4572067 1.2751817 0.81975496 0 255 0
1.4572173 1.2776406 0.8214736 0 255 0
1.4572281 1.2800994 0.8231923 0 255 0
1.4572388 1.2825583 0.824911 0 255 0
1.4572494 1.2850173 0.82662964 0 255 0
1.4572601 1.2874761 0.82834828 0 255 0
1.4572707 1.289935 0.83006698 0 255 0
1.4572815 1.2923939 0.83178568 0 255 0
1.4572921 1.2948527 0.83350432 0 255 0
1.4573028 1.2973117 0.83522302 0 255 0
1.4573135 1.2997705 0.83694172 0 255 0
1.4573241 1.3022294 0.83866036 0 255 0
1.4573349 1.3046882 0.84037906 0 255 0
1.4573455 1.3071471 0.84209776 0 255 0
1.4573562 1.3096061 0.8438164 0 255 0
1.4573669 1.3120649 0.84553504 0 255 0
1.4573776 1.3145238 0.84725374 0 255 0
1.4573883 1.3169826 0.84897244 0 255 0
1.4573989 1.3194416 0.85069108 0 255 0
1.4574096 1.3219005 0.85240978 0 255 0
1.4574202 1.3243593 0.85412848 0 255 0
1.457431 1.3268182 0.85584712 0 255 0
1.4574417 1.329277 0.85756582 0 255 0
1.4574523 1.331736 0.85928452 0 255 0
1.457463 1.3341949 0.86100316 0 255 0
1.4574736 1.3366537 0.8627218 0 255 0
1.4574844 1.3391126 0.8644405 0 255 0
1.4574951 1.3415715 0.8661592 0 255 0
1.4575057 1.3440304 0.86787784 0 255 0
1.4575164 1.3464892 0.86959654 0 255 0
1.457527 1.3489481 0.87131524 0 255 0
1.4575378 1.3514071 0.87303388 0 255 0
1.4575484 1.3538659 0.87475258 0 255 0
1.4575591 1.3563248 0.87647122 0 255 0
1.4575698 1.3587836 0.87818992 0 255 0
1.4575804 1.3612425 0.87990856 0 255 0
1.4575912 1.3637013 0.88162726 0 255 0
1.4576018 1.3661603 0.88334596 0 255 0
1.4576125 1.3686192 0.8850646 0 255 0
1.4576231 1.371078 0.8867833 0 255 0
1.4576339 1.3735369 0.888502 0 255 0
1.4576446 1.3759958 0.89022064 0 255 0
1.4576552 1.3784547 0.89193928 0 255 0
1.4576659 1.3809135 0.89365798 0 255 0
1.4576765 1.3833724 0.89537668 0 255 0
1.4576873 1.3858314 0.89709532 0 255 0
1.457698 1.3882902 0.89881402 0 255 0
1.4577086 1.3907491 0.90053272 0 255 0
1.4577193 1.3932079 0.90225136 0 255 0
1.4577299 1.3956668 0.90397 0 255 0
1.4577407 1.3981258 0.90568876 0 255 0
1.4577513 1.4005846 0.9074074 0 255 0
1.457762 1.4030435 0.90912604 0 255 0
1.4577727 1.4055023 0.91084474 0 255 0
1.4577833 1.4079612 0.91256344 0 255 0
1.4549788 1.2076551 0.76975268 0 255 0
1.4549896 1.2101139 0.77147138 0 255 0
1.4550002 1.2125728 0.77319002 0 255 0
1.4550109 1.2150316 0.77490872 0 255 0
1.4550216 1.2174906 0.77662736 0 255 0
1.4550322 1.2199495 0.77834606 0 255 0
1.455043 1.2224083 0.7800647 0 255 0
1.4550536 1.2248672 0.7817834 0 255 0
1.4550643 1.227326 0.7835021 0 255 0
1.4550749 1.229785 0.78522074 0 255 0
1.4550856 1.2322438 0.78693944 0 255 0
1.4550964 1.2347027 0.78865814 0 255 0
1.455107 1.2371616 0.79037678 0 255 0
1.4551177 1.2396204 0.79209542 0 255 0
1.4551283 1.2420794 0.79381412 0 255 0
1.455139 1.2445383 0.79553282 0 255 0
1.4551498 1.2469971 0.79725146 0 255 0
1.4551604 1.249456 0.79897016 0 255 0
1.4551711 1.2519149 0.80068886 0 255 0
1.4551817 1.2543738 0.8024075 0 255 0
1.4551924 1.2568326 0.8041262 0 255 0
1.4552031 1.2592915 0.80584484 0 255 0
1.4552138 1.2617505 0.80756354 0 255 0
1.4552245 1.2642093 0.80928218 0 255 0
1.4552351 1.2666682 0.81100088 0 255 0
1.4552459 1.269127 0.81271958 0 255 0
1.4552565 1.2715859 0.81443822 0 255 0
1.4552672 1.2740448 0.81615692 0 255 0
1.4552778 1.2765037 0.81787556 0 255 0
1.4552885 1.2789626 0.81959426 0 255 0
1.4552993 1.2814214 0.8213129 0 255 0
1.4553099 1.2838804 0.8230316 0 255 0
1.4553206 1.2863392 0.8247503 0 255 0
1.4553312 1.2887981 0.82646894 0 255 0
1.4553419 1.2912569 0.82818764 0 255 0
1.4553527 1.2937158 0.82990634 0 255 0
1.4553633 1.2961748 0.83162498 0 255 0
1.455374 1.2986336 0.83334368 0 255 0
1.4553846 1.3010925 0.83506233 0 255 0
1.4553953 1.3035514 0.83678102 0 255 0
1.455406 1.3060102 0.83849967 0 255 0
1.4554167 1.3084692 0.84021837 0 255 0
1.4554274 1.310928 0.84193707 0 255 0
1.455438 1.3133869 0.84365571 0 255 0
1.4554487 1.3158457 0.84537441 0 255 0
1.4554594 1.3183047 0.84709311 0 255 0
1.4554701 1.3207636 0.84881175 0 255 0
1.4554807 1.3232224 0.85053045 0 255 0
1.4554914 1.3256813 0.85224909 0 255 0
1.4555022 1.3281401 0.85396779 0 255 0
1.4555128 1.3305991 0.85568643 0 255 0
1.4555235 1.333058 0.85740513 0 255 0
1.4555341 1.3355168 0.85912383 0 255 0
1.4555448 1.3379757 0.86084247 0 255 0
1.4555556 1.3404346 0.86256117 0 255 0
1.4555662 1.3428935 0.86427987 0 255 0
1.4555769 1.3453523 0.86599851 0 255 0
1.4555875 1.3478112 0.86771721 0 255 0
1.4555982 1.3502702 0.86943585 0 255 0
1.4556088 1.352729 0.87115455 0 255 0
1.4556196 1.3551879 0.87287319 0 255 0
1.4556303 1.3576467 0.87459189 0 255 0
1.4556409 1.3601056 0.87631059 0 255 0
1.4556516 1.3625646 0.87802923 0 255 0
1.4556623 1.3650234 0.87974793 0 255 0
1.455673 1.3674823 0.88146663 0 255 0
1.4556837 1.3699411 0.88318527 0 255 0
1.4556943 1.3724 0.88490391 0 255 0
1.455705 1.3748589 0.88662261 0 255 0
1.4557157 1.3773178 0.88834131 0 255 0
1.4557264 1.3797767 0.89005995 0 255 0
1.455737 1.3822355 0.89177865 0 255 0
1.4557477 1.3846945 0.89349735 0 255 0
1.4557585 1.3871533 0.89521599 0 255 0
1.4557691 1.3896122 0.89693469 0 255 0
1.4557798 1.392071 0.89865333 0 255 0
1.4557904 1.3945299 0.90037203 0 255 0
1.4558011 1.3969889 0.90209067 0 255 0
1.4558117 1.3994477 0.90380937 0 255 0
1.4558225 1.4019066 0.90552807 0 255 0
1.4558332 1.4043654 0.90724671 0 255 0
1.4558438 1.4068244 0.90896541 0 255 0
1.4558545 1.4092832 0.91068411 0 255 0
1.45305 1.208977 0.76787329 0 255 0
1.4530606 1.2114359 0.76959199 0 255 0
1.4530714 1.2138948 0.77131069 0 255 0
1.4530821 1.2163537 0.77302933 0 255 0
1.4530927 1.2188126 0.77474803 0 255 0
1.4531034 1.2212714 0.77646667 0 255 0
1.453114 1.2237303 0.77818537 0 255 0
1.4531248 1.2261891 0.77990401 0 255 0
1.4531355 1.2286481 0.78162271 0 255 0
1.4531461 1.231107 0.78334141 0 255 0
1.4531568 1.2335658 0.78506005 0 255 0
1.4531674 1.2360247 0.78677875 0 255 0
1.4531782 1.2384835 0.78849745 0 255 0
1.4531888 1.2409425 0.79021609 0 255 0
1.4531995 1.2434013 0.79193479 0 255 0
1.4532102 1.2458602 0.79365343 0 255 0
1.4532208 1.2483191 0.79537213 0 255 0
1.4532316 1.250778 0.79709077 0 255 0
1.4532422 1.2532369 0.79880947 0 255 0
1.4532529 1.2556957 0.80052817 0 255 0
1.4532635 1.2581546 0.80224681 0 255 0
1.4532743 1.2606134 0.80396551 0 255 0
1.453285 1.2630724 0.80568415 0 255 0
1.4532956 1.2655313 0.80740285 0 255 0
1.4533063 1.2679901 0.80912149 0 255 0
1.4533169 1.270449 0.81084019 0 255 0
1.4533277 1.272908 0.81255889 0 255 0
1.4533384 1.2753668 0.81427753 0 255 0
1.453349 1.2778257 0.81599623 0 255 0
1.4533597 1.2802845 0.81771493 0 255 0
1.4533703 1.2827435 0.81943357 0 255 0
1.4533811 1.2852023 0.82115227 0 255 0
1.4533917 1.2876612 0.82287091 0 255 0
1.4534024 1.2901201 0.82458961 0 255 0
1.4534131 1.2925789 0.82630825 0 255 0
1.4534237 1.2950379 0.82802695 0 255 0
1.4534345 1.2974967 0.82974565 0 255 0
1.4534451 1.2999556 0.83146429 0 255 0
1.4534558 1.3024144 0.83318299 0 255 0
1.4534664 1.3048733 0.83490169 0 255 0
1.4534771 1.3073323 0.83662033 0 255 0
1.4534879 1.3097911 0.83833903 0 255 0
1.4534985 1.31225 0.84005767 0 255 0
1.4535092 1.3147088 0.84177637 0 255 0
1.4535198 1.3171678 0.84349501 0 255 0
1.4535306 1.3196267 0.84521371 0 255 0
1.4535413 1.3220855 0.84693241 0 255 0
1.4535519 1.3245444 0.84865105 0 255 0
1.4535626 1.3270032 0.85036975 0 255 0
1.4535732 1.3294622 0.85208845 0 255 0
1.453584 1.3319211 0.85380709 0 255 0
1.4535946 1.3343799 0.85552579 0 255 0
1.4536053 1.3368388 0.85724443 0 255 0
1.453616 1.3392977 0.85896313 0 255 0
1.4536266 1.3417566 0.86068177 0 255 0
1.4536374 1.3442154 0.86240047 0 255 0
1.453648 1.3466743 0.86411917 0 255 0
1.4536587 1.3491333 0.86583781 0 255 0
1.4536693 1.3515921 0.86755651 0 255 0
1.45368 1.354051 0.86927521 0 255 0
1.4536908 1.3565098 0.87099385 0 255 0
1.4537014 1.3589687 0.87271249 0 255 0
1.4537121 1.3614277 0.87443119 0 255 0
1.4537227 1.3638865 0.87614989 0 255 0
1.4537334 1.3663454 0.87786853 0 255 0
1.4537442 1.3688042 0.87958723 0 255 0
1.4537548 1.3712631 0.88130593 0 255 0
1.4537655 1.373722 0.88302457 0 255 0
1.4537761 1.3761809 0.88474327 0 255 0
1.4537868 1.3786398 0.88646191 0 255 0
1.4537975 1.3810986 0.88818061 0 255 0
1.4538082 1.3835576 0.88989925 0 255 0
1.4538189 1.3860164 0.89161795 0 255 0
1.4538295 1.3884753 0.89333665 0 255 0
1.4538403 1.3909342 0.89505529 0 255 0
1.4538509 1.393393 0.89677399 0 255 0
1.4538616 1.395852 0.89849263 0 255 0
1.4538723 1.3983108 0.90021133 0 255 0
1.4538829 1.4007697 0.90192997 0 255 0
1.4538937 1.4032285 0.90364867 0 255 0
1.4539043 1.4056875 0.90536737 0 255 0
1.453915 1.4081464 0.90708601 0 255 0
1.4539256 1.4106052 0.90880471 0 255 0
1.4511211 1.210299 0.76599395 0 255 0
1.4511318 1.2127579 0.76771265 0 255 0
1.4511425 1.2152168 0.76943129 0 255 0
1.4511532 1.2176757 0.77114999 0 255 0
1.4511639 1.2201345 0.77286863 0 255 0
1.4511745 1.2225934 0.77458733 0 255 0
1.4511852 1.2250524 0.77630603 0 255 0
1.451196 1.2275112 0.77802467 0 255 0
1.4512066 1.2299701 0.77974337 0 255 0
1.4512173 1.2324289 0.78146207 0 255 0
1.4512279 1.2348878 0.78318071 0 255 0
1.4512386 1.2373466 0.78489941 0 255 0
1.4512492 1.2398056 0.78661805 0 255 0
1.45126 1.2422645 0.78833675 0 255 0
1.4512707 1.2447233 0.79005539 0 255 0
1.4512813 1.2471823 0.79177409 0 255 0
1.451292 1.2496411 0.79349279 0 255 0
1.4513026 1.2521 0.79521143 0 255 0
1.4513134 1.2545588 0.79693013 0 255 0
1.451324 1.2570177 0.79864877 0 255 0
1.4513347 1.2594767 0.80036747 0 255 0
1.4513454 1.2619355 0.80208611 0 255 0
1.4513561 1.2643944 0.80380481 0 255 0
1.4513668 1.2668532 0.80552351 0 255 0
1.4513774 1.2693121 0.80724216 0 255 0
1.4513881 1.271771 0.80896086 0 255 0
1.4513988 1.2742299 0.81067955 0 255 0
1.4514095 1.2766888 0.8123982 0 255 0
1.4514202 1.2791476 0.81411684 0 255 0
1.4514308 1.2816066 0.81583554 0 255 0
1.4514415 1.2840654 0.81755424 0 255 0
1.4514521 1.2865243 0.81927288 0 255 0
1.4514629 1.2889832 0.82099158 0 255 0
1.4514736 1.291442 0.82271028 0 255 0
1.4514842 1.293901 0.82442892 0 255 0
1.4514949 1.2963598 0.82614762 0 255 0
1.4515055 1.2988187 0.82786632 0 255 0
1.4515163 1.3012776 0.82958496 0 255 0
1.4515269 1.3037364 0.8313036 0 255 0
1.4515376 1.3061954 0.8330223 0 255 0
1.4515483 1.3086542 0.834741 0 255 0
1.4515589 1.3111131 0.83645964 0 255 0
1.4515697 1.3135719 0.83817834 0 255 0
1.4515803 1.3160309 0.83989704 0 255 0
1.451591 1.3184898 0.84161568 0 255 0
1.4516017 1.3209486 0.84333438 0 255 0
1.4516124 1.3234075 0.84505308 0 255 0
1.4516231 1.3258663 0.84677172 0 255 0
1.4516337 1.3283253 0.84849036 0 255 0
1.4516444 1.3307842 0.85020906 0 255 0
1.451655 1.333243 0.85192776 0 255 0
1.4516658 1.3357019 0.8536464 0 255 0
1.4516765 1.3381608 0.8553651 0 255 0
1.4516871 1.3406197 0.8570838 0 255 0
1.4516978 1.3430786 0.85880244 0 255 0
1.4517084 1.3455374 0.86052114 0 255 0
1.4517192 1.3479964 0.86223978 0 255 0
1.4517298 1.3504552 0.86395848 0 255 0
1.4517405 1.3529141 0.86567712 0 255 0
1.4517512 1.3553729 0.86739582 0 255 0
1.4517618 1.3578318 0.86911452 0 255 0
1.4517726 1.3602908 0.87083316 0 255 0
1.4517832 1.3627496 0.87255186 0 255 0
1.4517939 1.3652085 0.87427056 0 255 0
1.4518046 1.3676673 0.8759892 0 255 0
1.4518152 1.3701262 0.8777079 0 255 0
1.451826 1.3725851 0.87942654 0 255 0
1.4518366 1.375044 0.88114524 0 255 0
1.4518473 1.3775029 0.88286388 0 255 0
1.4518579 1.3799617 0.88458258 0 255 0
1.4518687 1.3824207 0.88630128 0 255 0
1.4518794 1.3848795 0.88801992 0 255 0
1.45189 1.3873384 0.88973862 0 255 0
1.4519007 1.3897973 0.89145726 0 255 0
1.4519113 1.3922561 0.89317596 0 255 0
1.4519221 1.3947151 0.8948946 0 255 0
1.4519327 1.3971739 0.8966133 0 255 0
1.4519434 1.3996328 0.898332 0 255 0
1.4519541 1.4020916 0.90005064 0 255 0
1.4519647 1.4045506 0.90176934 0 255 0
1.4519755 1.4070095 0.90348804 0 255 0
1.4519861 1.4094683 0.90520668 0 255 0
1.4519968 1.4119272 0.90692532 0 255 0
1.4491923 1.211621 0.76411462 0 255 0
1.449203 1.2140799 0.76583326 0 255 0
1.4492136 1.2165388 0.76755196 0 255 0
1.4492244 1.2189976 0.76927066 0 255 0
1.449235 1.2214565 0.7709893 0 255 0
1.4492457 1.2239153 0.772708 0 255 0
1.4492564 1.2263743 0.7744267 0 255 0
1.449267 1.2288332 0.77614534 0 255 0
1.4492778 1.231292 0.77786404 0 255 0
1.4492884 1.2337509 0.77958268 0 255 0
1.4492991 1.2362098 0.78130138 0 255 0
1.4493097 1.2386687 0.78302002 0 255 0
1.4493204 1.2411276 0.78473872 0 255 0
1.4493312 1.2435864 0.78645742 0 255 0
1.4493418 1.2460454 0.78817606 0 255 0
1.4493525 1.2485042 0.78989476 0 255 0
1.4493631 1.2509631 0.7916134 0 255 0
1.4493738 1.253422 0.7933321 0 255 0
1.4493845 1.2558808 0.79505074 0 255 0
1.4493952 1.2583398 0.79676944 0 255 0
1.4494059 1.2607986 0.79848814 0 255 0
1.4494165 1.2632575 0.80020678 0 255 0
1.4494272 1.2657163 0.80192548 0 255 0
1.4494379 1.2681752 0.80364418 0 255 0
1.4494486 1.2706342 0.80536282 0 255 0
1.4494593 1.273093 0.80708146 0 255 0
1.4494699 1.2755519 0.80880016 0 255 0
1.4494807 1.2780107 0.81051886 0 255 0
1.4494913 1.2804697 0.8122375 0 255 0
1.449502 1.2829285 0.8139562 0 255 0
1.4495126 1.2853874 0.8156749 0 255 0
1.4495233 1.2878463 0.81739354 0 255 0
1.4495341 1.2903051 0.81911224 0 255 0
1.4495447 1.2927641 0.82083088 0 255 0
1.4495554 1.2952229 0.82254958 0 255 0
1.449566 1.2976818 0.82426822 0 255 0
1.4495767 1.3001407 0.82598692 0 255 0
1.4495875 1.3025995 0.82770562 0 255 0
1.4495981 1.3050585 0.82942426 0 255 0
1.4496088 1.3075173 0.83114296 0 255 0
1.4496194 1.3099762 0.83286166 0 255 0
1.4496301 1.3124352 0.8345803 0 255 0
1.4496408 1.314894 0.836299 0 255 0
1.4496515 1.3173529 0.83801764 0 255 0
1.4496622 1.3198117 0.83973634 0 255 0
1.4496728 1.3222706 0.84145498 0 255 0
1.4496835 1.3247294 0.84317368 0 255 0
1.4496942 1.3271884 0.84489238 0 255 0
1.4497049 1.3296473 0.84661102 0 255 0
1.4497155 1.3321061 0.84832972 0 255 0
1.4497262 1.334565 0.85004842 0 255 0
1.449737 1.3370239 0.85176706 0 255 0
1.4497476 1.3394828 0.85348576 0 255 0
1.4497583 1.3419417 0.8552044 0 255 0
1.4497689 1.3444005 0.8569231 0 255 0
1.4497796 1.3468595 0.85864174 0 255 0
1.4497904 1.3493183 0.86036044 0 255 0
1.449801 1.3517772 0.86207914 0 255 0
1.4498117 1.3542361 0.86379778 0 255 0
1.4498223 1.3566949 0.86551648 0 255 0
1.449833 1.3591539 0.86723518 0 255 0
1.4498436 1.3616127 0.86895382 0 255 0
1.4498544 1.3640716 0.87067252 0 255 0
1.4498651 1.3665304 0.87239116 0 255 0
1.4498757 1.3689893 0.87410986 0 255 0
1.4498864 1.3714483 0.8758285 0 255 0
1.4498971 1.3739071 0.8775472 0 255 0
1.4499078 1.376366 0.8792659 0 255 0
1.4499184 1.3788248 0.88098454 0 255 0
1.4499291 1.3812838 0.88270324 0 255 0
1.4499398 1.3837426 0.88442189 0 255 0
1.4499505 1.3862015 0.88614058 0 255 0
1.4499612 1.3886604 0.88785923 0 255 0
1.4499718 1.3911192 0.88957793 0 255 0
1.4499825 1.3935782 0.89129663 0 255 0
1.4499933 1.396037 0.89301527 0 255 0
1.4500039 1.3984959 0.89473397 0 255 0
1.4500146 1.4009547 0.89645267 0 255 0
1.4500252 1.4034137 0.89817131 0 255 0
1.4500359 1.4058726 0.89988995 0 255 0
1.4500465 1.4083314 0.90160865 0 255 0
1.4500573 1.4107903 0.90332735 0 255 0
1.450068 1.4132491 0.90504599 0 255 0
1.4472635 1.212943 0.76223528 0 255 0
1.4472741 1.2154019 0.76395392 0 255 0
1.4472848 1.2178607 0.76567262 0 255 0
1.4472954 1.2203196 0.76739132 0 255 0
1.4473062 1.2227786 0.76910996 0 255 0
1.4473169 1.2252374 0.77082866 0 255 0
1.4473275 1.2276963 0.7725473 0 255 0
1.4473382 1.2301551 0.774266 0 255 0
1.4473488 1.232614 0.77598464 0 255 0
1.4473596 1.2350729 0.77770334 0 255 0
1.4473702 1.2375318 0.77942204 0 255 0
1.4473809 1.2399907 0.78114069 0 255 0
1.4473916 1.2424495 0.78285939 0 255 0
1.4474022 1.2449085 0.78457803 0 255 0
1.447413 1.2473673 0.78629673 0 255 0
1.4474236 1.2498262 0.78801537 0 255 0
1.4474343 1.252285 0.78973407 0 255 0
1.4474449 1.2547439 0.79145277 0 255 0
1.4474556 1.2572029 0.79317141 0 255 0
1.4474664 1.2596617 0.79489011 0 255 0
1.447477 1.2621206 0.79660881 0 255 0
1.4474877 1.2645794 0.79832745 0 255 0
1.4474983 1.2670383 0.80004609 0 255 0
1.4475091 1.2694973 0.80176479 0 255 0
1.4475198 1.2719561 0.80348349 0 255 0
1.4475304 1.274415 0.80520213 0 255 0
1.4475411 1.2768738 0.80692083 0 255 0
1.4475517 1.2793328 0.80863953 0 255 0
1.4475625 1.2817917 0.81035817 0 255 0
1.4475731 1.2842505 0.81207687 0 255 0
1.4475838 1.2867094 0.81379551 0 255 0
1.4475945 1.2891682 0.81551421 0 255 0
1.4476051 1.2916272 0.81723285 0 255 0
1.4476159 1.294086 0.81895155 0 255 0
1.4476265 1.2965449 0.82067025 0 255 0
1.4476372 1.2990038 0.82238889 0 255 0
1.4476478 1.3014627 0.82410759 0 255 0
1.4476585 1.3039216 0.82582629 0 255 0
1.4476693 1.3063804 0.82754493 0 255 0
1.4476799 1.3088393 0.82926363 0 255 0
1.4476906 1.3112981 0.83098227 0 255 0
1.4477012 1.3137571 0.83270097 0 255 0
1.4477119 1.316216 0.83441961 0 255 0
1.4477227 1.3186748 0.83613831 0 255 0
1.4477333 1.3211337 0.83785701 0 255 0
1.447744 1.3235927 0.83957565 0 255 0
1.4477546 1.3260515 0.84129435 0 255 0
1.4477654 1.3285104 0.84301305 0 255 0
1.447776 1.3309692 0.84473169 0 255 0
1.4477867 1.3334281 0.84645039 0 255 0
1.4477974 1.335887 0.84816903 0 255 0
1.447808 1.3383459 0.84988773 0 255 0
1.4478188 1.3408048 0.85160637 0 255 0
1.4478294 1.3432636 0.85332507 0 255 0
1.4478401 1.3457226 0.85504377 0 255 0
1.4478508 1.3481814 0.85676241 0 255 0
1.4478614 1.3506403 0.85848111 0 255 0
1.4478722 1.3530991 0.86019981 0 255 0
1.4478828 1.355558 0.86191845 0 255 0
1.4478935 1.358017 0.86363715 0 255 0
1.4479041 1.3604758 0.86535579 0 255 0
1.4479148 1.3629347 0.86707449 0 255 0
1.4479256 1.3653935 0.86879313 0 255 0
1.4479362 1.3678524 0.87051183 0 255 0
1.4479469 1.3703114 0.87223053 0 255 0
1.4479575 1.3727702 0.87394917 0 255 0
1.4479682 1.3752291 0.87566787 0 255 0
1.4479789 1.3776879 0.87738651 0 255 0
1.4479896 1.3801469 0.87910521 0 255 0
1.4480003 1.3826057 0.88082385 0 255 0
1.4480109 1.3850646 0.88254255 0 255 0
1.4480217 1.3875235 0.88426125 0 255 0
1.4480323 1.3899823 0.88597989 0 255 0
1.448043 1.3924413 0.88769859 0 255 0
1.4480537 1.3949001 0.88941729 0 255 0
1.4480643 1.397359 0.89113593 0 255 0
1.4480751 1.3998179 0.89285457 0 255 0
1.4480857 1.4022768 0.89457327 0 255 0
1.4480964 1.4047357 0.89629197 0 255 0
1.448107 1.4071945 0.89801061 0 255 0
1.4481177 1.4096534 0.89972931 0 255 0
1.4481285 1.4121122 0.90144801 0 255 0
1.4481391 1.4145712 0.90316665 0 255 0
1.4453346 1.214265 0.76035589 0 255 0
1.4453453 1.2167238 0.76207459 0 255 0
1.4453559 1.2191827 0.76379323 0 255 0
1.4453666 1.2216417 0.76551193 0 255 0
1.4453773 1.2241005 0.76723063 0 255 0
1.445388 1.2265594 0.76894927 0 255 0
1.4453987 1.2290182 0.77066797 0 255 0
1.4454093 1.2314771 0.77238661 0 255 0
1.44542 1.2339361 0.77410531 0 255 0
1.4454306 1.2363949 0.77582395 0 255 0
1.4454414 1.2388538 0.77754265 0 255 0
1.4454521 1.2413126 0.77926135 0 255 0
1.4454627 1.2437716 0.78097999 0 255 0
1.4454734 1.2462304 0.78269869 0 255 0
1.445484 1.2486893 0.78441739 0 255 0
1.4454948 1.2511482 0.78613603 0 255 0
1.4455055 1.253607 0.78785467 0 255 0
1.4455161 1.256066 0.78957337 0 255 0
1.4455268 1.2585248 0.79129207 0 255 0
1.4455374 1.2609837 0.79301071 0 255 0
1.4455482 1.2634425 0.79472941 0 255 0
1.4455588 1.2659014 0.79644811 0 255 0
1.4455695 1.2683604 0.79816675 0 255 0
